# .PCD v0.7 - Point Cloud Data file format
VERSION 0.7
FIELDS x y z intensity
SIZE 4 4 4 4
TYPE F F F F
COUNT 1 1 1 1
WIDTH 1307
HEIGHT 1
VIEWPOINT 0 0 0 1 0 0 0
POINTS 1307
DATA ascii
-0.072195962 -4.4803514 1.6143017 152
-0.059999932 -4.2986102 1.6781085 158
-0.04731857 -3.9954722 1.6837837 158
-0.036256652 -3.7326372 1.6913258 165
-0.026375182 -3.4794989 1.6897132 165
-0.017792474 -3.2880292 1.7058057 175
-0.010025289 -3.0981817 1.7130513 181
-0.0030413792 -2.9319835 1.7239757 187
0.0032162052 -2.7605686 1.7232342 186
0.0089073516 -2.6181722 1.7320597 192
0.014011206 -2.4780869 1.735189 198
0.01874131 -2.3591509 1.746227 194
0.022994004 -2.2421727 1.7528422 195
0.026756641 -2.1257265 1.7539133 199
0.030282075 -2.0237672 1.7610966 201
0.033397846 -1.9229217 1.7641498 204
0.036247358 -1.8291577 1.7686242 196
0.038559258 -1.7301224 1.7630613 199
0.041000146 -1.650623 1.7723322 199
0.042770341 -1.56043 1.766054 201
0.044756085 -1.4880211 1.7752285 205
0.046250612 -1.4105334 1.7748436 199
0.047476768 -1.3347185 1.77241 204
0.048831686 -1.2694613 1.7801347 207
0.049727038 -1.2001779 1.7790734 211
0.050587617 -1.1362139 1.7822953 214
0.051438414 -1.0771163 1.7901865 215
0.051837515 -1.0143758 1.7892805 217
0.052010961 -0.95243561 1.78631 218
0.052204847 -0.89501119 1.788431 221
0.052222356 -0.83857244 1.78966 223
0.052252959 -0.78555703 1.7955322 211
0.051842801 -0.72973752 1.7924604 213
0.051518559 -0.67787474 1.7960756 215
0.050976507 -0.6259954 1.7972462 216
0.050281934 -0.57483971 1.7978657 217
0.049652353 -0.52637988 1.8046834 215
0.048811585 -0.47770306 1.8092097 214
0.047583256 -0.427508 1.8056034 215
0.046420939 -0.37951976 1.8084097 213
0.044825666 -0.33002582 1.8010769 217
0.043548279 -0.28388244 1.8091532 216
0.041871849 -0.23648824 1.8080938 218
0.040029317 -0.18935306 1.8057698 218
0.038226102 -0.14315575 1.8101647 216
0.036245272 -0.09686695 1.8133496 213
0.034087934 -0.050518796 1.815322 209
0.031755425 -0.00414351 1.816081 205
0.029249299 0.042226676 1.8156259 202
0.026571341 0.088559546 1.8139566 201
0.023723545 0.13482292 1.8110747 200
0.020708133 0.18098463 1.806982 198
0.017636416 0.22803932 1.8096145 196
0.014465768 0.27657637 1.8188879 193
0.011003254 0.32447988 1.8199313 193
0.0073371809 0.37240708 1.8186949 194
0.0035247505 0.42232591 1.8239403 195
-0.00053554773 0.4709613 1.8210071 196
-0.0047815889 0.52168727 1.8234529 198
-0.0092533454 0.57315111 1.8253958 200
-0.013981152 0.62737268 1.8324506 199
-0.018927615 0.67984134 1.8313228 198
-0.024174355 0.73569912 1.8360535 206
-0.029678687 0.79183948 1.838145 203
-0.035461254 0.84899402 1.8394034 199
-0.041512381 0.90672839 1.8388724 196
-0.047830939 0.96498668 1.8365209 192
-0.054786742 1.0316643 1.8462003 187
-0.061892767 1.0953132 1.8467445 183
-0.069543965 1.1639909 1.8518776 178
-0.077294871 1.2291391 1.8480029 173
-0.085636914 1.2995167 1.8484045 169
-0.094682276 1.3761569 1.8534703 176
-0.10409579 1.4532725 1.8549309 177
-0.11205553 1.5048821 1.822287 136
-0.11655013 1.5065364 1.7330122 136
-0.12113725 1.5107472 1.6514306 135
-0.12622511 1.5222971 1.5814329 140
-0.13113302 1.5319635 1.512622 145
-0.13579851 1.5390967 1.4443564 151
-0.14021151 1.5437338 1.376722 155
-0.14491279 1.5520916 1.314855 160
-0.15178069 1.5843019 1.273626 158
-0.16424584 1.6748782 1.2752352 154
-0.17918442 1.7870002 1.2870986 152
-0.19140033 1.8666255 1.2714127 185
-0.19900474 1.897475 1.2218862 180
-0.2057697 1.9192656 1.1670285 184
-0.2942535 2.6523945 1.4148439 28
-0.14564037 1.0613518 0.27579704 174
-0.14440592 1.0345304 0.24156232 165
-0.14502913 1.0223459 0.21144353 176
-0.14453387 1.0024507 0.18115278 183
-0.14479269 0.98860162 0.15276738 181
-0.1450192 0.97497106 0.12527409 183
-0.14607552 0.9675262 0.098949037 184
-0.15191601 0.99302006 0.074056968 185
-0.1517484 0.9772954 0.047703765 183
0.064385369 -0.19570279 0.049885187 132
0.067483708 -0.20286222 0.055691224 134
0.065023355 -0.19489038 0.060653146 133
0.073592946 -0.21665482 0.068529814 80
0.17989311 -0.49900484 0.11430143 168
0.19768035 -0.54294294 0.13597822 178
0.1979294 -0.54008877 0.15106879 178
0.20082247 -0.54417676 0.16774906 178
0.20635608 -0.55506188 0.18662137 177
0.20614734 -0.55094981 0.20207082 177
0.21169685 -0.56165254 0.22223906 176
0.2167104 -0.57082784 0.24282974 224
0.88346559 -2.2568092 0.90246773 196
0.88573664 -2.2479496 0.97169203 205
0.89001399 -2.2441094 1.0441724 203
0.8931666 -2.2374022 1.1167698 203
0.89856803 -2.2362044 1.1936535 202
1.1278087 -2.7839508 1.5744932 137
1.1459811 -2.8100224 1.6916944 152
1.0076828 -2.4567556 1.5770998 165
1.049096 -2.5401237 1.7280775 143
1.0134479 -2.4380879 1.7585846 188
0.96727109 -2.3122067 1.7665037 195
0.9211309 -2.1878738 1.7686272 198
0.88010246 -2.0769565 1.7747751 194
0.83944696 -1.9681823 1.7765878 195
0.79862148 -1.8602706 1.772903 199
0.7630651 -1.7656919 1.7757838 202
0.729954 -1.6777548 1.7801051 195
0.69463611 -1.5858222 1.7750757 196
0.66403711 -1.5055326 1.7777239 198
0.63353753 -1.4263623 1.777095 201
0.60774201 -1.3584746 1.7861706 205
0.57983017 -1.2866759 1.7864432 199
0.55382097 -1.2198104 1.7894598 202
0.52812392 -1.1543454 1.7907512 207
0.50251448 -1.0897822 1.7895842 210
0.48075113 -1.0340785 1.7994213 213
0.45710167 -0.97497708 1.8005233 215
0.43351817 -0.91664559 1.7995193 216
0.41003144 -0.85914385 1.7964487 218
0.38847435 -0.80620074 1.7993704 221
0.36672828 -0.75342113 1.7996166 222
0.34648988 -0.70419443 1.8054032 210
0.32496044 -0.65290892 1.8031552 213
0.30465847 -0.60454506 1.805755 215
0.28447956 -0.55689222 1.807771 216
0.26412383 -0.50937474 1.8073481 216
0.24391197 -0.46260017 1.8064008 214
0.22459087 -0.41789854 1.810768 215
0.20434435 -0.37196475 1.8069975 214
0.18499017 -0.32802746 1.8096468 214
0.16543984 -0.28414625 1.8100166 216
0.1459105 -0.24068983 1.8100778 218
0.12631206 -0.19750917 1.8088634 218
0.10716886 -0.15532064 1.8143394 217
0.087392591 -0.11259348 1.810629 216
0.067593716 -0.070232704 1.8056753 214
0.048032984 -0.028383512 1.807488 210
0.028457724 0.013494335 1.8160906 205
0.0084153991 0.055150688 1.8074881 203
-0.011639599 0.097229458 1.8136626 200
-0.0317716 0.13827266 1.8026558 200
-0.052252442 0.18043454 1.8063855 198
-0.073017806 0.22278045 1.8088639 195
-0.094054289 0.26527908 1.8100784 195
-0.11534806 0.3078987 1.8100173 193
-0.13695748 0.35080335 1.8096477 194
-0.15940873 0.39534122 1.8147757 195
-0.18235672 0.44050536 1.8194602 195
-0.20560589 0.48579815 1.8217396 198
-0.22826923 0.52911401 1.8149562 200
-0.25332743 0.57757956 1.8228512 199
-0.27778932 0.62403321 1.8216237 199
-0.30367354 0.67317492 1.8253249 207
-0.33020905 0.72317576 1.8282382 204
-0.3572326 0.7736575 1.8293968 199
-0.38302091 0.82085168 1.8207514 180
-0.41245782 0.87542969 1.8254448 187
-0.44249904 0.93065685 1.8280934 188
-0.47311875 0.98647243 1.8286557 184
-0.50616568 1.0467499 1.8338004 179
-0.53598487 1.0996201 1.8233674 174
-0.57458735 1.1700531 1.837665 170
-0.60965186 1.2324198 1.8354653 175
-0.65004647 1.3049271 1.84394 173
-0.68645871 1.3685877 1.836347 171
-0.72848427 1.442803 1.8387628 170
-0.77382469 1.52279 1.8437185 171
-0.82267594 1.6088256 1.850719 174
-0.84818882 1.6481665 1.8028165 157
-0.85084176 1.6426592 1.7095571 152
-0.85454345 1.6394182 1.6229184 155
-0.86850178 1.6560925 1.5582687 152
-0.90909308 1.7236087 1.5392438 175
-0.91240114 1.7195927 1.4583547 180
-0.9146806 1.7137918 1.3791802 186
-0.92188519 1.7174077 1.3099165 191
-0.92799079 1.7190183 1.2412341 197
-0.92971855 1.7125604 1.1692053 200
-0.93358344 1.7101912 1.1020807 190
-0.93296528 1.6996771 1.0321183 191
-0.9381007 1.6998415 0.97027725 193
-0.94229889 1.6983498 0.90898299 193
-0.94556564 1.6952331 0.8482914 193
-0.94836253 1.691341 0.78861636 193
-0.95347643 1.6916652 0.73193997 193
-0.95824438 1.6913972 0.67594022 195
-0.96174294 1.6889075 0.62002015 195
-0.9687286 1.6926025 0.56688738 195
-0.97114778 1.6882734 0.51193416 197
-0.97618473 1.6885622 0.45892978 199
-0.98099017 1.6884536 0.40628424 198
-0.98904115 1.6939517 0.35505348 195
-0.9799723 1.6699927 0.29930434 187
-0.99060595 1.6799396 0.24937662 194
-0.95514756 1.6113951 0.19183496 172
-0.9393996 1.5768691 0.14061524 179
-0.90596336 1.5128771 0.090610154 168
-0.85416371 1.4187148 0.044446625 196
0.098903984 -0.12080598 0.045005724 117
0.099114701 -0.12054246 0.04908831 121
0.093911372 -0.11426062 0.052723251 130
0.099320084 -0.119776 0.057241246 116
0.099314094 -0.11927406 0.061306003 142
0.10457545 -0.12455368 0.066428952 141
0.10441554 -0.12386148 0.070675008 140
0.10417876 -0.12308826 0.074903131 116
0.10386501 -0.12223483 0.079110414 133
0.098189257 -0.11560221 0.081401579 131
0.12471163 -0.14359723 0.096093498 171
0.26997927 -0.29829219 0.16506679 172
0.32172015 -0.35207367 0.20114151 166
0.34089422 -0.3708576 0.22468375 164
0.35951996 -0.38888127 0.24972887 93
1.8249876 -1.926307 1.1534775 180
1.8294336 -1.9223191 1.2360603 180
1.8321525 -1.9164698 1.3194019 188
1.8331076 -1.9087399 1.4034264 188
1.8426452 -1.9098192 1.4962143 186
1.8398392 -1.8980973 1.5817573 185
1.8399211 -1.8893071 1.671941 182
1.84794 -1.8885334 1.7721385 183
1.7819036 -1.8126769 1.8031418 191
1.687288 -1.708617 1.8005854 196
1.6031044 -1.6158719 1.802315 189
1.5196692 -1.524633 1.7987392 193
1.4462758 -1.4441121 1.8010249 194
1.3687915 -1.3602102 1.7928092 199
1.3051877 -1.2906386 1.7971301 193
1.242101 -1.2221338 1.7977515 196
1.1796267 -1.154783 1.7947365 198
1.1221765 -1.0928413 1.7948585 200
1.0685622 -1.0350881 1.7971281 204
1.0194937 -0.98214066 1.8035144 208
0.96719778 -0.92654926 1.8009888 202
0.92229581 -0.87838668 1.8086764 205
0.8738789 -0.82730633 1.8067123 209
0.82954216 -0.7804417 1.8098633 212
0.78588563 -0.73457819 1.8117226 214
0.7421816 -0.68903911 1.8106328 215
0.69887769 -0.64423728 1.8074735 218
0.65870667 -0.6026336 1.8094252 219
0.6187762 -0.56157613 1.8095769 221
0.57912791 -0.52110082 1.8079594 211
0.54237747 -0.48349619 1.812929 212
0.50326312 -0.44413054 1.807958 215
0.46681723 -0.40738404 1.809805 216
0.43213966 -0.37241396 1.816828 215
0.39585552 -0.33635908 1.8157755 215
0.3595615 -0.30059147 1.8123071 214
0.32515383 -0.2666294 1.816156 214
0.28940403 -0.2318742 1.8108653 214
0.25494695 -0.19839939 1.811078 216
0.2216755 -0.16603003 1.8188872 217
0.18643025 -0.13250883 1.8096142 218
0.15296783 -0.1004428 1.8149387 217
0.11873958 -0.068132348 1.8110744 216
0.085033715 -0.036315322 1.8139564 212
0.050914414 -0.0045853388 1.8076297 210
0.01715897 0.027038829 1.816081 205
-0.016962875 0.058531806 1.8153222 202
-0.051176071 0.089872874 1.8133497 201
-0.085456744 0.12104039 1.810165 200
-0.1197809 0.15201288 1.8057702 197
-0.15412439 0.18276909 1.800168 197
-0.19012474 0.21525794 1.8091539 195
-0.2247442 0.24579208 1.8010776 194
-0.26173329 0.27871621 1.8084105 194
-0.29913813 0.31173462 1.8133754 195
-0.33560589 0.3434349 1.8092108 197
-0.37405267 0.37691104 1.812346 198
-0.41277334 0.41034496 1.8130642 200
-0.45406392 0.44604811 1.8207809 200
-0.49403128 0.48008487 1.8193817 199
-0.53412217 0.51393789 1.8155222 196
-0.57719338 0.55038488 1.8183339 204
-0.62089336 0.58709556 1.8193935 200
-0.66485244 0.623716 1.81778 196
-0.70967555 0.66082317 1.8152542 192
-0.75794715 0.70082891 1.8178003 188
-0.80697113 0.74116427 1.8182622 184
-0.85991865 0.78475332 1.8232948 179
-0.90708119 0.82263267 1.81278 174
-0.96505451 0.87003297 1.8196745 170
-1.0245686 0.91838437 1.8246287 176
-1.0846665 0.96681297 1.8259883 173
-1.1462026 1.0160844 1.8252643 171
-1.2121655 1.0688441 1.8267988 176
-1.2413993 1.0886508 1.7723333 151
-1.2469957 1.0875605 1.6876682 153
-1.2550001 1.0886793 1.6102029 160
-1.2697768 1.0957572 1.5441952 156
-1.3300987 1.1422442 1.5314844 190
-1.4204941 1.2142093 1.5471296 163
-1.4528971 1.2358322 1.4977119 188
-1.4590701 1.2349368 1.4233141 184
-1.4525412 1.2233239 1.3401308 187
-1.4121542 1.1832858 1.2320213 180
-1.3034935 1.086316 1.0763674 192
-1.2936882 1.0729392 1.0072527 187
-1.292767 1.0671022 0.94729 176
-1.2957879 1.064602 0.89183688 177
-1.2974423 1.0610125 0.83697093 177
-1.304114 1.0615839 0.78637737 177
-1.3031751 1.0559416 0.73262566 178
-1.3132553 1.0593152 0.68565136 180
-1.3157269 1.0565021 0.6356535 182
-1.3177916 1.0533866 0.58639592 182
-1.3247255 1.054203 0.53981072 182
-1.3238615 1.0487802 0.49098766 182
-1.3226488 1.0431222 0.44294909 177
-0.36030418 0.27551597 0.12699561 64
-0.3243787 0.24609034 0.10759323 166
-0.31281206 0.23594636 0.094753318 132
-0.31425232 0.2360023 0.084482327 96
-0.30917248 0.2310061 0.073582731 101
-0.31016633 0.23073098 0.063472949 107
-0.30460471 0.22542322 0.05316722 109
2.1886804 -1.0579131 0.060334623 127
2.3756058 -1.1414053 0.13068376 182
2.3977256 -1.14568 0.2011027 182
2.4028437 -1.1418165 0.27127671 183
2.3990817 -1.1337594 0.34082457 184
2.4089127 -1.1320691 0.41249749 185
2.4089341 -1.1257712 0.48333421 183
2.4143634 -1.1219654 0.55579203 183
2.4188814 -1.1177064 0.62893599 183
2.4136176 -1.1089497 0.70039099 185
2.421515 -1.1061815 0.77630889 186
2.4195933 -1.0989268 0.85037518 186
2.4305 -1.097419 0.93004793 186
2.4255161 -1.0887471 1.0053151 185
2.4321992 -1.0852493 1.0865902 183
2.4366486 -1.0807042 1.1687597 182
2.4388187 -1.0751061 1.2517501 189
2.445267 -1.0713228 1.3389769 188
2.4491918 -1.0663741 1.4272473 186
2.4441037 -1.0574863 1.5126135 185
2.4500558 -1.0532912 1.60708 183
2.4523451 -1.0474545 1.7022054 180
2.4524863 -1.040639 1.7989227 183
2.3618302 -0.99574995 1.8303126 189
2.2280784 -0.93338877 1.8232549 193
2.1084995 -0.8775726 1.8201865 187
2.0018699 -0.82768118 1.8216282 190
1.8908559 -0.77655172 1.8129356 185
1.7986014 -0.73357701 1.8159583 197
1.7073593 -0.69147742 1.814905 191
1.6224891 -0.65237969 1.8155386 194
1.5386312 -0.61411417 1.8125317 196
1.4664243 -0.58083868 1.8186562 198
1.3894556 -0.5460757 1.8149809 203
1.3182158 -0.51391214 1.8143839 208
1.2529272 -0.48437846 1.8181145 201
1.1838971 -0.45375824 1.8128331 206
1.1242899 -0.4270162 1.8180873 209
1.0651444 -0.40073699 1.8211572 212
1.0065269 -0.37494355 1.8220781 213
0.94850224 -0.34965774 1.8208878 215
0.89113414 -0.32490066 1.8176262 217
0.83787012 -0.30188361 1.8194851 218
0.78504133 -0.27927998 1.819541 221
0.73611742 -0.25827369 1.8260684 221
0.68411541 -0.23646067 1.8227038 212
0.63269967 -0.21511012 1.8176278 213
0.5847317 -0.19514212 1.8193768 214
0.53674519 -0.1754002 1.8186821 214
0.48938298 -0.15608925 1.8174624 214
0.44212961 -0.13704996 1.8138278 214
0.39728969 -0.11894283 1.8175186 213
0.35249969 -0.10104927 1.819899 214
0.30779341 -0.083381332 1.8209782 216
0.26305661 -0.065917417 1.8197781 217
0.2176535 -0.048554309 1.810346 218
0.17441124 -0.031831577 1.815519 217
0.13039623 -0.015188308 1.811501 215
0.087032624 0.0012082867 1.8142315 212
0.043349165 0.01735511 1.8077525 210
-1.3303943e-05 0.033381619 1.8080547 205
-0.043614633 0.049494695 1.8151422 202
-0.087248348 0.065251678 1.813018 200
-0.1308738 0.080821261 1.8096818 200
-0.17446055 0.096192904 1.8051358 198
-0.21797822 0.11135627 1.7993832 197
-0.26373655 0.12749782 1.8082104 194
-0.30741578 0.14234756 1.7999834 195
-0.35424912 0.15850885 1.8071543 194
-0.39974084 0.17380026 1.8041914 196
-0.44734085 0.18981449 1.8076336 198
-0.4957189 0.2059202 1.8106021 199
-0.54694659 0.22298165 1.8196923 201
-0.59619981 0.23895156 1.8186914 200
-0.64313871 0.25375044 1.8087418 200
-0.6933099 0.26964495 1.8057206 198
-0.74691403 0.28665885 1.8084317 205
-0.800789 0.30351588 1.8084942 199
-0.85567695 0.32050467 1.8076872 196
-0.91475785 0.33882046 1.8120737 192
-0.97092235 0.35575742 1.8075147 189
-1.0315202 0.37407607 1.8078774 184
-1.0928721 0.39238358 1.8061194 179
-1.1549141 0.41065466 1.8022038 174
-1.2220494 0.4304637 1.8025355 171
-1.2946973 0.45191061 1.8067029 176
-1.3690664 0.47361425 1.8088605 175
-1.4438899 0.49512398 1.8073928 173
-1.5253913 0.51858634 1.8096855 174
-1.6080781 0.54206908 1.8087223 184
-1.62441 0.54271305 1.7342163 152
-1.6388432 0.54273516 1.6608003 155
-1.6393956 0.53816032 1.5772173 160
-1.6419913 0.53434962 1.4993246 166
-1.6485133 0.53189319 1.4280522 163
-1.652611 0.52869302 1.3575084 166
-1.6605122 0.52676475 1.2924342 170
-1.6592023 0.52192414 1.2228611 174
-1.6700089 0.52098107 1.1640023 177
-1.6782001 0.51921761 1.1049174 177
-1.6779435 0.51483673 1.0422723 180
-1.6756998 0.50989205 0.98044503 180
-1.6860399 0.50885183 0.9271161 182
-1.6870627 0.50497377 0.87011051 182
-1.6934003 0.50272751 0.81692904 181
-0.2938804 0.080835991 0.1683757 72
-0.29707214 0.081072822 0.16035676 87
-1.6909969 0.48567334 0.6032725 122
-1.7664454 0.503456 0.57536048 81
-1.8649415 0.52750909 0.55007607 55
-7.8549628 2.2254133 1.9474339 112
-7.8889823 2.2166333 1.7296907 107
-7.9022379 2.2019727 1.5088521 103
-4.3520927 1.199551 0.72896552 73
-4.3149495 1.1792887 0.60339135 109
-1.9642756 0.52859396 0.24474145 96
-1.9303141 0.51490802 0.18848796 143
-0.49475798 0.12576213 0.067882098 152
-0.45486724 0.11403584 0.053691238 102
1.9150455 -0.13655922 0.063287869 149
1.9221596 -0.13292432 0.11381624 208
1.9199665 -0.12866454 0.16421878 218
1.9164482 -0.12432865 0.21453926 216
1.9116074 -0.11992383 0.26474318 182
1.9380677 -0.11732078 0.31942248 218
1.9393253 -0.11320965 0.37163818 227
3.0936856 -0.169973 0.6500476 168
3.092752 -0.16321762 0.73440772 168
3.0982239 -0.15675478 0.82129854 169
3.1012433 -0.15012963 0.90892613 169
3.1008191 -0.14331147 0.99692857 171
3.1064136 -0.13671602 1.0883434 177
3.1093173 -0.12995443 1.1806802 176
3.1169212 -0.12331751 1.2768 173
3.1142328 -0.11624189 1.3709379 172
3.1169019 -0.10930827 1.4694965 171
3.1227946 -0.10241029 1.5721523 170
3.1333847 -0.095562592 1.6802284 169
3.1395371 -0.088488728 1.7893894 166
3.0792301 -0.07974007 1.8628527 182
2.8977399 -0.068608075 1.859519 183
2.7327573 -0.058574259 1.8573726 187
2.5699229 -0.049288683 1.8478776 185
2.4295914 -0.041031573 1.8460371 191
2.2974563 -0.033477012 1.843058 196
2.1795146 -0.026625469 1.8446245 189
2.0630956 -0.020291433 1.8412851 194
1.9550047 -0.014496878 1.8392088 198
1.8599625 -0.0091894269 1.8438656 201
1.7604328 -0.0042931512 1.8390958 193
1.6733526 0.00021810457 1.8420951 195
1.5820416 0.0043274295 1.8357981 199
1.5031437 0.0081553627 1.8390187 203
1.4295264 0.011714036 1.8448446 206
1.3524363 0.014907334 1.8424761 209
1.2758826 0.017773267 1.8365198 203
1.2056075 0.020438373 1.8352827 207
1.1362816 0.022821087 1.8316199 209
1.0762115 0.025169352 1.8393018 212
1.0086567 0.027022339 1.8311496 215
0.94977438 0.028888587 1.8348504 216
0.88783187 0.030379446 1.8295492 219
0.83062059 0.031806551 1.8304148 220
0.77357954 0.032995105 1.8286092 221
0.72019607 0.034136463 1.8324794 211
0.66469944 0.034923956 1.8282337 213
0.61219501 0.035661072 1.8289467 214
0.56041187 0.036225386 1.8291016 213
0.50876957 0.03657442 1.8268211 213
0.45788392 0.036757328 1.8240429 213
0.40906182 0.036920972 1.8266569 213
0.35903361 0.036736421 1.8210847 214
0.31095988 0.03656381 1.8220069 216
0.26177025 0.035999972 1.8127382 218
0.21436749 0.035477269 1.811059 218
0.16799055 0.034969393 1.8160805 217
0.12095544 0.034101922 1.8119086 214
0.074594684 0.033246372 1.8144875 211
0.028059602 0.032041069 1.8078563 208
-0.018238075 0.031012319 1.8160052 204
-0.064352863 0.029471656 1.80695 203
-0.11100415 0.028086105 1.8126671 200
-0.1565706 0.026217379 1.8012127 200
-0.20344579 0.024476988 1.8044826 196
-0.2505919 0.02255119 1.8064984 196
-0.29664049 0.020318694 1.799361 195
-0.34401929 0.018032117 1.7988702 195
-0.39156622 0.015560637 1.7970967 195
-0.44143856 0.013001958 1.8027594 197
-0.4894428 0.010147668 1.7983326 198
-0.54015273 0.0071771946 1.8011932 200
-0.59356612 0.0040321294 1.8092233 202
-0.64534783 0.00061878376 1.8090701 201
-0.69419962 -0.0030277856 1.7990341 200
-0.74962234 -0.006856475 1.8032794 196
-0.80572248 -0.010934055 1.8058068 204
-0.85848945 -0.015221894 1.7984997 201
-0.91557455 -0.019779947 1.7975994 196
-0.97317713 -0.024588298 1.794892 193
-1.030732 -0.029635351 1.7894887 189
-1.0934246 -0.035051282 1.7898759 185
-1.1568129 -0.040755559 1.7881497 180
-1.2254235 -0.046899073 1.7908202 175
-1.2901644 -0.053199738 1.7846369 172
-1.3658634 -0.060197849 1.7896135 169
-1.4369321 -0.067330681 1.7848439 176
-1.5198042 -0.075294644 1.7903293 174
-1.5978105 -0.08338622 1.7859967 175
-1.6828341 -0.092163444 1.7852012 176
-1.7745578 -0.10166286 1.7867012 177
-1.8674471 -0.1116226 1.7845404 176
-1.9673598 -0.12239183 1.7839508 185
-2.0745683 -0.1340373 1.7843999 189
-2.1189559 -0.14212582 1.7294017 156
-2.1291664 -0.14808632 1.6486162 156
-2.1301181 -0.15338632 1.5638094 159
-2.1546052 -0.16030313 1.4979115 153
-2.2191937 -0.17023335 1.4585679 158
-2.2130177 -0.17502891 1.3746517 156
-2.2031376 -0.1794523 1.2915324 148
-2.1913431 -0.18362731 1.210306 150
-0.32242799 -0.033410389 0.20562662 80
-0.30385804 -0.032564454 0.18655016 121
-0.29276246 -0.032283936 0.17214167 133
-0.2959201 -0.033230212 0.16438994 136
-0.29887226 -0.034167793 0.15655603 140
-0.30161694 -0.035095375 0.14864528 113
-0.30415228 -0.036011651 0.14066318 105
-0.29882124 -0.036158886 0.13041916 108
-0.30088007 -0.037026454 0.12251282 110
-0.29400495 -0.036978666 0.11253871 105
-0.29559776 -0.037791245 0.10476113 108
-0.29698581 -0.038587 0.096942261 112
-0.298168 -0.039364718 0.089087434 116
-0.29125148 -0.039239869 0.080236197 118
-0.29199952 -0.039958503 0.072533824 112
-0.30047318 -0.041577816 0.065361202 105
-0.317693 -0.044269048 0.058138918 103
-0.31784663 -0.044976473 0.049740702 104
4.1861072 1.3860861 0.10208122 143
4.1878562 1.3965915 0.21778247 142
4.1942592 1.4087002 0.33430618 148
4.2061896 1.4227457 0.45228994 149
4.2075663 1.4332671 0.57035738 149
4.2199674 1.4476305 0.69109946 148
4.2301354 1.4613174 0.81322527 149
4.2370853 1.473972 0.93652654 149
4.2407732 1.4855601 1.0609105 150
4.2566891 1.5015521 1.1904657 149
4.2608657 1.5134901 1.31933 150
4.2696214 1.5271565 1.4520538 150
4.2809052 1.5418482 1.588562 150
4.2891779 1.5555735 1.727183 154
4.3004465 1.5705191 1.8704625 155
4.1437411 1.523563 1.9407187 157
3.8472102 1.4238906 1.9350703 160
3.5745654 1.3317269 1.925048 162
3.3263125 1.2474358 1.9129806 164
3.1150551 1.1759825 1.908589 174
2.9267907 1.1122938 1.9066569 174
2.7537627 1.0535568 1.9042015 181
2.5963867 1.0000463 1.9029635 186
2.4412708 0.94665021 1.8943589 184
2.3073087 0.90081167 1.8934566 190
2.1745968 0.85481197 1.8858445 195
2.0562415 0.81388545 1.8830701 187
1.9460213 0.77564675 1.8809839 190
1.8422903 0.73949295 1.8788478 194
1.7355535 0.70159757 1.867381 197
1.6405299 0.66797972 1.8620321 190
1.5527835 0.63690227 1.8593055 192
1.4664603 0.6059804 1.8529902 196
1.3869789 0.57750332 1.8500754 201
1.3179123 0.55305248 1.8565772 206
1.2446535 0.52646983 1.853299 211
1.1773626 0.50209558 1.854563 202
1.1109858 0.4777844 1.8533481 207
1.0451078 0.45335594 1.8488556 210
0.9845376 0.43094695 1.8496863 212
0.92519826 0.40878594 1.8492686 214
0.86623663 0.38649341 1.8459109 216
0.80817872 0.36430645 1.8405142 218
0.75412172 0.34366867 1.840386 220
0.7007212 0.32306138 1.8384793 221
0.64802557 0.30250859 1.8348265 211
0.5988887 0.28339654 1.8379033 213
0.5498448 0.26408464 1.8385144 214
0.5015341 0.2448857 1.8385649 213
0.45344144 0.22554266 1.8361751 213
0.40611243 0.20633227 1.8332847 212
0.35912338 0.18703394 1.8279872 213
0.31292391 0.16788693 1.8222513 213
0.26850885 0.14948395 1.8230165 216
0.22422743 0.13091901 1.8215024 217
0.17958669 0.11183976 1.8117528 218
0.13685653 0.093764693 1.8166229 217
0.09368138 0.075119212 1.8122971 215
0.05088672 0.056448277 1.8067327 212
0.0085285688 0.037966505 1.8079412 208
-0.033939887 0.019435208 1.8159388 203
-0.076350227 0.0005520694 1.8147248 202
-0.11864638 -0.01847012 1.8122975 200
-0.16006094 -0.03747531 1.800694 200
-0.2018514 -0.056648232 1.7958679 198
-0.24455751 -0.076236024 1.7977568 196
-0.28740937 -0.096083425 1.7983841 195
-0.33037508 -0.1161774 1.7977383 194
-0.37342224 -0.13650447 1.7958094 196
-0.41675082 -0.15713456 1.7935566 197
-0.46192741 -0.17865559 1.7967248 198
-0.50772566 -0.20065056 1.7994195 201
-0.55357379 -0.22290367 1.7997009 203
-0.60000992 -0.24562222 1.7994479 202
-0.64637166 -0.26854494 1.7967558 200
-0.69328409 -0.29192212 1.7934709 197
-0.73999661 -0.31544712 1.787728 195
-0.79048228 -0.34079027 1.7885097 201
-0.84140033 -0.36658007 1.7875174 196
-0.89225066 -0.39260176 1.7838488 194
-0.94385874 -0.41921076 1.7792333 190
-0.99965167 -0.44792467 1.7795242 185
-1.0559756 -0.47716701 1.7777041 180
-1.1169813 -0.50880378 1.7802683 176
-1.1743236 -0.53910625 1.7739956 172
-1.2365062 -0.57191211 1.7717849 171
-1.3044686 -0.60770392 1.7739798 176
-1.3726155 -0.64394456 1.7725642 176
-1.4420354 -0.68114066 1.7690071 176
-1.5114233 -0.71868742 1.7617754 180
-1.5922915 -0.76203823 1.7634368 180
-1.6740646 -0.8062557 1.7614452 180
-1.7342553 -0.84054089 1.733987 168
-1.7200825 -0.83916163 1.6356692 155
-1.7195088 -0.84423685 1.5540932 160
-1.7112824 -0.84549254 1.4693511 163
-1.712038 -0.85106361 1.3952546 167
-1.7038167 -0.85213345 1.3169861 171
-1.6999683 -0.85528618 1.244823 175
-1.6870353 -0.85381407 1.1690516 169
-1.6850319 -0.85774231 1.1030631 171
-1.6811311 -0.86066061 1.0378562 171
-1.675375 -0.86257797 0.97349709 174
-1.675079 -0.86723703 0.91381747 173
-1.6723533 -0.87061554 0.8542881 174
-1.6680298 -0.87312752 0.79540616 174
-1.6629742 -0.8752141 0.73757088 176
-1.6555656 -0.87602127 0.68011779 178
-1.6534232 -0.87955028 0.62583977 179
-1.6507661 -0.88278282 0.57228458 180
-1.6459241 -0.88482624 0.51892751 181
-1.6406267 -0.88659102 0.46632829 172
-1.6409568 -0.89135188 0.41581705 173
-1.6253496 -0.88748223 0.36258408 174
-1.630195 -0.89465392 0.31400859 174
-1.6190926 -0.89312923 0.26325119 176
-1.6146604 -0.8952111 0.2140505 177
-1.6090891 -0.89664203 0.16515061 180
-1.6093831 -0.90130377 0.11689958 178
-1.6015779 -0.90145302 0.068494461 177
0.3666836 0.30659136 0.052304994 157
0.36574778 0.30712992 0.064810708 156
0.39546394 0.33425248 0.080116093 152
0.41267559 0.35071275 0.096022703 137
0.46605435 0.39895108 0.11911256 78
4.6412768 4.0691762 0.95972687 175
4.6247821 4.0723286 1.1237172 183
4.6116042 4.0784121 1.2895764 181
4.5943222 4.0808644 1.4556412 180
4.5866675 4.0919228 1.6264493 173
4.5153108 4.0458603 1.7752441 165
4.4776349 4.0297608 1.9360166 172
4.3092613 3.8951132 2.0368941 162
3.9119737 3.550962 2.0126426 156
3.5709701 3.2551925 1.9900086 155
3.2910974 3.0129106 1.9782161 158
3.0373292 2.7925386 1.9623915 159
2.8197081 2.6036808 1.9522064 162
2.6268358 2.4361634 1.9437969 170
2.4529486 2.2848909 1.9356869 170
2.2919183 2.1443317 1.9251138 180
2.1545317 2.0248196 1.9229538 179
2.0235927 1.9103421 1.9165213 187
1.9002413 1.8020556 1.9075526 185
1.7935758 1.708763 1.9063563 190
1.6887053 1.6163503 1.8990724 192
1.5946033 1.5335083 1.8960711 187
1.5064677 1.4557109 1.8931208 190
1.4240943 1.3828332 1.8907807 194
1.3436949 1.3112268 1.8846945 197
1.2648391 1.2404832 1.8742824 190
1.2029896 1.1859742 1.8831952 190
1.130764 1.1206096 1.8709856 195
1.067319 1.0634509 1.8673118 199
1.0054843 1.0073881 1.8612424 204
0.94779146 0.95501161 1.8577098 210
0.89477289 0.9069317 1.8587399 202
0.83911604 0.85568899 1.8497961 207
0.79090476 0.81168139 1.8525718 209
0.74336052 0.76796949 1.8531913 212
0.69686413 0.72495663 1.8525665 214
0.65077382 0.68197197 1.8490028 217
0.60788453 0.64200538 1.850588 218
0.56329769 0.59983176 1.843086 219
0.52382886 0.56282753 1.848351 221
0.48298192 0.52397084 1.8455224 222
0.44253898 0.48518389 1.8400589 213
0.40279827 0.44679528 1.8329159 213
0.36552721 0.41084197 1.8327322 213
0.32991627 0.37648296 1.8378192 213
0.29341975 0.34076083 1.834762 213
0.25727662 0.30509192 1.8292984 212
0.22180769 0.26986349 1.8233991 214
0.18769282 0.2359851 1.8240072 216
0.15376823 0.20201285 1.8223361 217
0.11972495 0.16744781 1.8124279 218
0.087035313 0.13450223 1.8171462 217
0.054171219 0.10088173 1.8126669 215
0.021748362 0.067711338 1.8149427 212
-0.010580518 0.034388736 1.8160051 207
-0.042792901 0.00093704276 1.8158534 204
-0.074866414 -0.032620497 1.8144877 202
-0.10677884 -0.066260502 1.8119088 200
-0.13786127 -0.099528678 1.8001565 200
-0.16924331 -0.13311055 1.7951802 198
-0.20133042 -0.16743939 1.7969155 196
-0.23345123 -0.2020607 1.7973883 196
-0.26558101 -0.23695025 1.7965877 194
-0.29769498 -0.27208325 1.794503 195
-0.3299537 -0.30760252 1.7920936 198
-0.36197817 -0.34316549 1.7874075 199
-0.39763424 -0.38239026 1.7976267 202
-0.4316147 -0.42037264 1.7977417 203
-0.46596164 -0.45900738 1.7973198 203
-0.50015688 -0.49779683 1.7944585 200
-0.53213775 -0.53469586 1.7827469 198
-0.56897295 -0.57668656 1.7850888 194
-0.60607415 -0.61928749 1.7856858 199
-0.6434024 -0.66246146 1.7845068 196
-0.67782396 -0.7030037 1.7736859 195
-0.71535707 -0.7470482 1.7689863 190
-0.75597745 -0.79464078 1.7691821 186
-0.79997504 -0.84614962 1.7739049 180
-0.84442848 -0.89856726 1.7762445 175
-0.8826775 -0.94484162 1.7633668 173
-0.9276641 -0.99864459 1.7610545 171
-0.976879 -1.0574148 1.7631307 178
-1.0260891 -1.1166636 1.7615993 177
-1.0761135 -1.1772763 1.7579255 178
-1.1259704 -1.2381947 1.7505805 180
-1.1803977 -1.3046114 1.7465285 182
-1.2430767 -1.3806655 1.7499474 180
-1.3022951 -1.4535151 1.7440912 189
-1.3659552 -1.5319037 1.7395592 188
-1.4299963 -1.6113585 1.7308793 185
-1.4900475 -1.6869656 1.7132293 183
-1.21503 -1.3841983 1.3367289 178
-1.1791189 -1.3500961 1.2333679 198
-1.163614 -1.3388622 1.1552696 195
-1.1604921 -1.3416318 1.0916913 196
-1.1514417 -1.3375024 1.0249975 200
-1.14561 -1.3369783 0.96320808 199
-1.1431912 -1.3403414 0.90583438 199
-1.1402208 -1.3430173 0.84946138 200
-1.1355493 -1.3436507 0.79328758 183
-1.1297907 -1.3429424 0.73780459 197
-1.1284266 -1.347374 0.6861499 192
-1.1254967 -1.3499246 0.63452387 193
-1.122236 -1.3520482 0.5836302 194
-1.1174417 -1.352298 0.53289956 195
-1.1631302 -1.4133987 0.50285202 126
-1.1983651 -1.4623297 0.46566021 130
-1.1862121 -1.4539791 0.41123959 191
-1.1425415 -1.4069872 0.34971496 187
-1.1385415 -1.4082459 0.30091327 202
-1.1343509 -1.4092449 0.25251651 209
-1.134365 -1.415426 0.20509867 213
-1.1285813 -1.4144181 0.15707396 220
-1.12202 -1.4124007 0.10939002 212
-1.0679572 -1.3507305 0.061346326 149
0.34010264 0.66831058 0.05919981 174
0.34548286 0.68277967 0.079551898 173
0.347027 0.68961281 0.10014147 174
0.34479287 0.68880504 0.12032679 175
0.34971884 0.70268232 0.1425678 173
0.34697136 0.70087665 0.16307612 175
0.3546817 0.72075236 0.18789645 186
0.35815611 0.73201317 0.21209377 187
0.35456133 0.72857231 0.23336452 187
0.36441544 0.75347525 0.26283535 183
0.3671729 0.7636103 0.28938553 186
0.36265382 0.75834376 0.31147686 187
0.37426874 0.78765696 0.34681419 186
0.37221763 0.78782445 0.37235093 185
0.36674574 0.78058374 0.39504272 184
0.35799968 0.76612592 0.41428912 183
0.34876293 0.7504397 0.43247393 184
0.342751 0.74171829 0.45399857 184
0.3397921 0.7397092 0.47948399 184
0.33615634 0.73619187 0.5045926 184
0.33221316 0.73197329 0.52974987 183
0.32524416 0.72088158 0.55062097 141
0.31543386 0.70320725 0.56665826 128
0.71483761 1.625124 1.3163098 128
0.7024613 1.6074727 1.37199 128
0.68975449 1.5889449 1.4280519 133
0.6736992 1.5624582 1.4780624 132
0.65978128 1.5408032 1.5333868 129
0.64721441 1.5222262 1.5931404 128
0.63417846 1.5024469 1.6534517 127
0.62463295 1.4910133 1.7251221 125
0.61200184 1.472136 1.7912197 127
0.59848434 1.4510516 1.8572844 176
0.56839389 1.3889092 1.8722308 204
0.53501582 1.3178148 1.8722019 207
0.50036615 1.2425958 1.8621011 211
0.46850282 1.1734394 1.8563356 204
0.4387984 1.1088921 1.8537061 206
0.4099372 1.0456637 1.8494766 209
0.38461831 0.99086249 1.8566771 212
0.35847563 0.93317151 1.8558452 214
0.33269998 0.87567312 1.8520756 216
0.30749232 0.81890208 1.8462728 218
0.28399625 0.76602751 1.8457665 219
0.26094618 0.71365052 1.8434856 221
0.23835912 0.66182208 1.8394631 211
0.21636164 0.61091381 1.8346735 213
0.19554129 0.56270403 1.8348716 213
0.17515966 0.51509899 1.8345188 213
0.15503983 0.46756333 1.8317322 213
0.1353658 0.42066711 1.8284552 213
0.11648227 0.37561965 1.8305904 212
0.09748698 0.32939953 1.8245279 214
0.078843214 0.2834965 1.8161011 216
0.060897741 0.23937167 1.8152281 218
0.043208607 0.19541043 1.8130841 218
0.025875693 0.15234074 1.8176506 216
0.0086550564 0.10860936 1.8130178 213
-0.0083416961 0.065443479 1.815142 210
-0.025191261 0.022177512 1.8160527 206
-0.041881863 -0.021158494 1.8157492 203
-0.058110442 -0.064253725 1.8062419 202
-0.07437484 -0.10744347 1.8035239 200
-0.090447068 -0.15061282 1.7996001 199
-0.10631627 -0.19373165 1.7944736 198
-0.12255301 -0.23783313 1.7960554 197
-0.13870572 -0.28221336 1.796374 195
-0.15476108 -0.32684031 1.7954183 195
-0.17070583 -0.37168154 1.7931782 196
-0.18748829 -0.4187718 1.7983508 198
-0.20324618 -0.46415782 1.7934527 200
-0.22094476 -0.514373 1.8034379 201
-0.23756877 -0.56276041 1.8033202 203
-0.25427523 -0.61188811 1.8026583 202
-0.26960844 -0.65830898 1.7921426 199
-0.28611591 -0.70803273 1.7885152 197
-0.30365807 -0.76085174 1.789672 204
-0.32135847 -0.81469995 1.7899932 199
-0.33904207 -0.8691566 1.7885313 196
-0.35668746 -0.92417043 1.7852575 193
-0.37408546 -0.97920674 1.7792881 189
-0.39487925 -1.0437125 1.7866361 183
-0.41377684 -1.1040863 1.7833291 178
-0.43283457 -1.1656301 1.7787032 175
-0.45183229 -1.227775 1.7718825 171
-0.47269493 -1.2957243 1.769865 171
-0.49509317 -1.3687288 1.7706437 176
-0.51773798 -1.4433649 1.7693338 178
-0.54014385 -1.5183121 1.7643737 180
-0.56462407 -1.6000373 1.7628853 180
-0.58885229 -1.6821339 1.7573938 181
-0.61522323 -1.7714124 1.7546418 180
-0.64156193 -1.8617951 1.7481654 189
-0.67009372 -1.9597341 1.7436177 186
-0.70035344 -2.0640428 1.7391666 183
-0.73054242 -2.169569 1.7301666 179
-0.76506048 -2.2893727 1.7262731 183
-0.8016088 -2.4169102 1.7213753 178
-0.83830822 -2.5466862 1.7111789 172
-0.88130033 -2.697386 1.7071724 172
-0.92631245 -2.8564112 1.6999274 164
-0.97549295 -3.0305643 1.692486 158
-1.0291041 -3.2209971 1.6840805 156
-1.0893325 -3.434922 1.6767186 148
-1.1539305 -3.6657722 1.6654041 149
-1.2292423 -3.9341094 1.6571845 145
-1.315782 -4.2424388 1.6497047 148
-1.4176643 -4.6049738 1.6444675 166
-1.4148531 -4.631896 1.5131768 182
-1.4918476 -4.9210587 1.4580153 153
-1.5514171 -5.1569037 1.374253 160
-1.5404354 -5.1609535 1.2257887 159
-1.5283244 -5.1610765 1.0782019 176
-1.9248058 -6.5455432 1.1704757 168
-1.909171 -6.5443349 0.98700976 169
-1.894709 -6.546958 0.8056075 169
-1.8855613 -6.5678997 0.62697035 167
-1.8704047 -6.5680079 0.4469339 168
-1.856437 -6.5721774 0.26780385 167
-1.5353062 -5.4840136 0.081581481 255
0.13235642 1.4194721 0.077113815 189
0.12989886 1.4263716 0.11480588 192
0.12732492 1.4322693 0.15286799 193
0.12398728 1.4292173 0.19046356 197
0.12121191 1.4330884 0.22897685 198
0.11772007 1.4280373 0.26655394 198
0.11483652 1.430829 0.30558935 198
0.11178257 1.4315748 0.34470463 197
0.10863968 1.4312481 0.38402399 197
0.10541283 1.4298381 0.42351818 197
0.10217116 1.4282925 0.46343812 199
0.099280946 1.4322804 0.50566375 198
0.095809743 1.4274909 0.54572564 198
0.092781641 1.4299757 0.58903617 197
0.089595117 1.430236 0.63242549 196
0.086365543 1.4301065 0.6765905 194
0.082994163 1.4277294 0.72070867 193
0.079586275 1.4249016 0.76557153 193
0.076398201 1.4268454 0.81405348 192
0.073138893 1.4280782 0.86361092 203
0.06946747 1.4208478 0.90958583 200
0.066297576 1.4256113 0.96439612 196
0.062697835 1.4210289 1.0149554 193
0.059286118 1.4220527 1.0711521 189
0.055754691 1.4210862 1.1280459 185
0.052312668 1.4243248 1.1905839 181
0.048549868 1.419139 1.2488343 177
0.044877052 1.4185631 1.3135749 171
0.041204572 1.4206372 1.3838851 177
0.037264235 1.4142973 1.4495066 173
0.033451367 1.4172124 1.5279776 166
0.029381979 1.4109099 1.6008619 161
0.025286442 1.4076018 1.6812249 156
0.021167312 1.4111327 1.7748436 164
0.016799059 1.4009023 1.8570651 212
0.012075674 1.3240973 1.8535624 201
0.0076956488 1.2524276 1.8530598 204
0.0036349073 1.1778617 1.8442099 208
-0.00014505163 1.1130334 1.8463343 210
-0.0036540795 1.0489025 1.8463163 212
-0.0068946294 0.98553693 1.8441949 215
-0.0098696183 0.92300296 1.8400108 216
-0.012659755 0.86483598 1.8410147 219
-0.015125785 0.80396831 1.832924 220
-0.017548401 0.75068188 1.8385807 221
-0.019640939 0.69439256 1.8342952 211
-0.0215063 0.63884258 1.82831 213
-0.023291215 0.58689439 1.8292098 213
-0.02485732 0.53504831 1.8276674 213
-0.026239352 0.48394674 1.8256121 213
-0.027404943 0.43308207 1.8211454 213
-0.028547414 0.38468444 1.8240455 213
-0.029347798 0.33494538 1.8177781 215
-0.030100871 0.28691685 1.8170488 217
-0.030526776 0.2382185 1.8080938 218
-0.031107398 0.19191171 1.8137213 217
-0.031343605 0.14481845 1.8101647 216
-0.031576291 0.098487884 1.8133496 213
-0.03163556 0.052089602 1.815322 210
-0.031521216 0.0056558587 1.816081 205
-0.03123326 -0.040781088 1.8156259 203
-0.030771935 -0.087188974 1.8139566 200
-0.029971851 -0.13293239 1.8030992 200
-0.029331248 -0.1797886 1.806982 197
-0.028353473 -0.225916 1.8016814 197
-0.027358115 -0.27311358 1.8030804 196
-0.026182011 -0.32053503 1.8032098 195
-0.024824446 -0.36814547 1.8020588 194
-0.023301542 -0.41614035 1.8005905 195
-0.02157893 -0.46404824 1.7968435 198
-0.019789578 -0.51428831 1.7994648 199
-0.017918119 -0.56773144 1.8092145 202
-0.015617901 -0.6163969 1.8013148 203
-0.013314448 -0.671076 1.8079596 200
-0.010625225 -0.72005075 1.7972072 199
-0.0078223646 -0.77254939 1.7933267 195
-0.004857704 -0.8287487 1.7951183 202
-0.0016185939 -0.88149118 1.7871202 198
0.0018048622 -0.93863988 1.7854712 196
0.0054626204 -1.0002675 1.7889484 192
0.0093676653 -1.0538566 1.7758507 189
0.013564877 -1.121525 1.782977 183
0.018017931 -1.1846193 1.7794633 178
0.022748904 -1.2488574 1.7746269 174
0.027754873 -1.3136255 1.767594 171
0.033240117 -1.3895093 1.7715762 170
0.039063811 -1.4658148 1.7719722 176
0.045253769 -1.5437195 1.7702699 176
0.051951516 -1.6279832 1.7714593 177
0.059021883 -1.7126132 1.7686737 179
0.066698171 -1.8046681 1.7688183 179
0.074808665 -1.8978457 1.7652829 179
0.083586052 -1.9980774 1.7632227 186
0.092582151 -2.0932374 1.7519934 185
0.10314411 -2.215209 1.7570862 179
0.11371285 -2.3258891 1.7474598 178
0.12543057 -2.450645 1.7422631 182
0.13808176 -2.5833139 1.7360197 177
0.15172593 -2.72403 1.7281307 169
0.16762188 -2.8944726 1.7305549 167
0.1844085 -3.0676396 1.7256072 161
0.20288652 -3.2565901 1.7199738 161
0.22362557 -3.4687688 1.7159097 151
0.24692658 -3.706444 1.7124349 154
0.2728616 -3.9681897 1.7068052 152
0.26122767 -3.6719484 1.470981 160
0.26583871 -3.621877 1.3435025 153
0.26820517 -3.544987 1.2121297 161
0.27458581 -3.5258913 1.1043345 163
0.2806758 -3.5045855 0.99858159 165
0.28764075 -3.4956982 0.89843476 161
0.31021076 -3.58214 0.72281706 134
0.34688708 -3.9146039 0.67987502 142
0.35595369 -3.9211788 0.57573438 136
0.027349357 -0.22709149 0.069277607 68
0.02566414 -0.20378746 0.061324537 131
0.026135173 -0.20410393 0.055945411 135
0.026593443 -0.20427915 0.050558444 136
0.027833208 -0.21227336 0.045193233 135
-0.32133371 1.0296624 0.072706878 187
-0.31830466 1.0127037 0.10009005 183
-0.3223615 1.017876 0.12848067 196
-0.32620832 1.0223078 0.15723115 196
-0.33014598 1.0269285 0.1864513 197
-0.33354849 1.0298375 0.21588483 197
-0.33920115 1.0394323 0.2470718 195
-0.35270441 1.0722622 0.28434724 197
-0.36036313 1.0872884 0.31940803 197
-0.36308298 1.0875456 0.35162079 188
-0.37018418 1.1005406 0.38833708 130
-0.36456677 1.0764552 0.41366518 126
-0.36363897 1.0661513 0.44328311 153
-0.36736175 1.0692227 0.47835997 191
-0.36584088 1.0573229 0.50780016 187
-0.36647388 1.0515951 0.54017574 176
-0.36952171 1.0526342 0.57646763 88
-0.38187084 1.0794055 0.62772197 167
-0.6929006 1.9288059 1.1569405 188
-0.69457197 1.9195229 1.2226923 185
-0.69789577 1.9147019 1.2929487 187
-0.70045012 1.9077041 1.3638223 183
-0.70221144 1.8985008 1.4352403 179
-0.70771688 1.8991823 1.5165308 174
-0.70776516 1.8852472 1.5891495 169
-0.71166527 1.881371 1.6727757 173
-0.714266 1.8739276 1.7566707 168
-0.72038633 1.8753999 1.8527148 189
-0.69039834 1.7841879 1.8592465 198
-0.65834373 1.6888412 1.8563732 190
-0.6304965 1.6052723 1.8611218 191
-0.59869498 1.512836 1.8506486 195
-0.57127959 1.4324262 1.8492692 199
-0.54373711 1.3526832 1.8439384 204
-0.51821321 1.2788343 1.8418086 209
-0.49482861 1.2110384 1.8441336 203
-0.47148019 1.1441234 1.8439636 206
-0.44629389 1.0736469 1.8337985 209
-0.42666891 1.0170823 1.8431451 212
-0.40515965 0.95675647 1.8428104 213
-0.3837029 0.89724904 1.8403792 215
-0.36232689 0.83861959 1.835893 217
-0.3410598 0.78092641 1.8293949 219
-0.32261199 0.73016399 1.8355432 220
-0.30295345 0.67728353 1.833636 221
-0.28318423 0.624762 1.829089 212
-0.26349497 0.57301706 1.8228498 213
-0.24511701 0.52460533 1.8235123 213
-0.22658111 0.47638103 1.8217384 214
-0.20909794 0.43077338 1.8271848 214
-0.18964566 0.38176408 1.8147748 214
-0.17205063 0.3368735 1.8174702 213
-0.15434526 0.29219049 1.8188637 216
-0.1364646 0.24761109 1.8179774 216
-0.11803362 0.20256524 1.8088634 218
-0.10065167 0.15962113 1.8143394 217
-0.082659662 0.1161126 1.810629 216
-0.064950794 0.073288456 1.8136625 213
-0.047057375 0.030472554 1.8154833 209
-0.028833399 -0.012238075 1.8080924 205
-0.010766314 -0.055015288 1.8154835 203
0.0076061171 -0.097627833 1.8136626 201
0.026022144 -0.13946901 1.8026558 200
0.044740245 -0.18244246 1.8063855 197
0.063475586 -0.22458583 1.8009342 197
0.082993776 -0.26894465 1.8100784 194
0.10207495 -0.31100598 1.8021531 194
0.12173907 -0.35438275 1.8008465 195
0.14230508 -0.39982522 1.8069986 196
0.16250339 -0.44351161 1.8030434 198
0.18376999 -0.48960832 1.806402 199
0.20530684 -0.53578776 1.8073494 200
0.22730324 -0.58256823 1.8077723 202
0.24951801 -0.62930661 1.8057566 200
0.27218243 -0.67660934 1.803157 198
0.29501095 -0.72374344 1.7980983 195
0.31956631 -0.77459902 1.7996185 202
0.34302482 -0.82212919 1.7913551 198
0.36982444 -0.87719834 1.7964506 194
0.39565873 -0.92925936 1.7925946 190
0.42350885 -0.98547715 1.7937056 186
0.45189124 -1.0422589 1.7927153 181
0.48078066 -1.0995407 1.7895861 177
0.51015109 -1.1572579 1.7842824 173
0.54193127 -1.219807 1.7831165 171
0.57429719 -1.2829474 1.7794521 178
0.60959649 -1.3519422 1.7800905 176
0.64778513 -1.4265653 1.7837832 175
0.68423176 -1.4964612 1.7777253 176
0.72391635 -1.5726706 1.775077 178
0.76916862 -1.6601417 1.7801063 177
0.81539434 -1.7487071 1.7811365 184
0.8625375 -1.8382331 1.778098 183
0.91614449 -1.9405513 1.7816218 179
0.97084564 -2.0440288 1.7802531 176
1.0262225 -2.1477699 1.7733282 182
1.091763 -2.271652 1.77613 180
1.0594367 -2.1903999 1.6240926 183
1.0607291 -2.1798258 1.5295786 172
1.0608822 -2.1671438 1.4371352 172
1.0653423 -2.163517 1.3534768 148
1.0170327 -2.0527356 1.2113963 190
1.0216982 -2.0503843 1.1368397 182
1.0252917 -2.0459704 1.0630935 182
1.0278215 -2.0395372 0.99022698 177
1.0330743 -2.0386364 0.92153269 182
0.23655848 -0.45048738 0.20977421 164
0.17132777 -0.32049319 0.15210834 169
0.082265988 -0.14555429 0.089261271 165
0.079076968 -0.13859394 0.082772195 141
0.079815604 -0.13926579 0.078585498 142
0.076863065 -0.13286628 0.072918095 140
0.081146166 -0.14031102 0.070144899 138
0.081736527 -0.14068396 0.065896779 139
0.078546345 -0.13392912 0.060798191 143
0.082763784 -0.1411301 0.057359464 144
0.083199322 -0.14120328 0.053076115 143
0.079787895 -0.13413671 0.048577771 144
0.080100767 -0.13401619 0.044494972 144
-0.99388933 1.2205102 0.049602643 170
-1.1169101 1.364372 0.096383214 188
-1.1128317 1.3535529 0.14201218 208
-1.1455764 1.3870527 0.19192274 169
-1.1507701 1.3872654 0.23981592 185
-1.1551526 1.3864771 0.28799155 193
-1.1644373 1.3914756 0.33785164 203
-1.1563518 1.3758786 0.38356909 197
-1.163937 1.3788038 0.43407822 199
-1.1857709 1.3983424 0.4908672 101
-1.3241571 1.526184 0.8274771 98
-1.293509 1.4844084 0.86736441 205
-1.2972348 1.4819423 0.92885154 152
-2.2882397 2.57078 1.9271694 45
-2.1461606 2.4005456 1.9170583 55
-2.0247474 2.2546561 1.9145604 53
-1.963927 2.1768429 1.9614838 24
-1.4645914 1.6180718 1.5545082 77
-1.3290769 1.4621309 1.4895074 208
-1.310903 1.4351778 1.5456104 200
-1.2221236 1.3319649 1.5176313 184
-1.1818076 1.2818201 1.5429232 172
-1.1579448 1.2496631 1.5880342 177
-1.1618975 1.2473172 1.6721395 173
-1.1593189 1.2379094 1.7509415 168
-1.1514143 1.2228101 1.8252892 202
-1.0955743 1.1574562 1.8254095 198
-1.0402684 1.0931942 1.8222854 202
-0.99298096 1.0377697 1.8292218 206
-0.94256502 0.97956246 1.8272288 199
-0.89226556 0.92195547 1.8216484 203
-0.84614712 0.8690812 1.8207505 209
-0.80046594 0.81708211 1.8174256 211
-0.76115763 0.77190095 1.825389 213
-0.71911216 0.7243427 1.8245121 214
-0.67743188 0.67753428 1.8215562 217
-0.63874698 0.63404608 1.8237017 218
-0.59781754 0.58872724 1.8168072 221
-0.56235063 0.54904556 1.8235086 221
-0.5244115 0.50730991 1.8203284 212
-0.48680478 0.46623689 1.8154342 214
-0.4517557 0.42788839 1.8173531 215
-0.41658896 0.38973132 1.816828 214
-0.38180509 0.35222706 1.8157755 214
-0.34699982 0.3150093 1.8123071 214
-0.31400573 0.27967235 1.816156 213
-0.27970317 0.24348812 1.8108653 215
-0.24664009 0.20863588 1.811078 216
-0.21276176 0.17341897 1.8030797 218
-0.18086824 0.14000537 1.8096142 218
-0.14805222 0.10614262 1.8069817 218
-0.11586045 0.072920918 1.8110744 216
-0.083480924 0.039755132 1.8139564 213
-0.050684869 0.0066593252 1.8076297 210
-0.018144652 -0.026176203 1.8080829 205
0.014559869 -0.05917535 1.8153222 202
0.047465272 -0.091886736 1.8133497 201
0.080445066 -0.12442757 1.810165 198
0.11347616 -0.15677544 1.8057702 197
0.14717588 -0.18978216 1.8080943 196
0.18117902 -0.22283977 1.8091539 194
0.21546188 -0.25592297 1.8089371 194
0.25013641 -0.28916919 1.8084105 195
0.2849246 -0.32224485 1.8056043 196
0.32130402 -0.35685089 1.8092108 197
0.3568182 -0.3901507 1.8046846 199
0.39756414 -0.42894334 1.8216126 200
0.4336445 -0.46222907 1.8132502 202
0.47179562 -0.4974733 1.8109921 199
0.5105716 -0.53307092 1.808143 198
0.5519737 -0.57111931 1.8110379 205
0.59369391 -0.60914594 1.8112848 200
0.63627875 -0.64772141 1.8106656 196
0.67940772 -0.68650788 1.8082379 193
0.72304213 -0.72546446 1.8039733 190
0.77010232 -0.76753592 1.8046507 186
0.82095307 -0.81302387 1.8099077 180
0.86948961 -0.85578841 1.8062035 175
0.91862375 -0.89876544 1.8003089 171
0.97528577 -0.94876081 1.8048496 169
1.0293362 -0.99574852 1.8004167 176
1.0920321 -1.0507113 1.806312 173
1.1520138 -1.1025515 1.803094 173
1.216319 -1.1580789 1.8019741 175
1.2862129 -1.2184422 1.8039302 176
1.3572563 -1.2793516 1.8022298 183
1.4336934 -1.3448091 1.8021429 181
1.5207652 -1.4196701 1.8089601 179
1.6139309 -1.4995486 1.8159487 177
1.704061 -1.5758816 1.8128372 182
1.8049976 -1.6615341 1.8140854 177
1.9172027 -1.756797 1.8185956 183
1.9246105 -1.7551472 1.7233908 165
1.9289981 -1.7508101 1.6286711 167
1.9316472 -1.7449803 1.5355986 168
1.9319714 -1.7371416 1.4437298 169
1.9459317 -1.7416742 1.3639826 170
0.3868854 -0.33759046 0.28728503 108
0.3813349 -0.3310881 0.2673054 159
0.38077599 -0.32907706 0.25097567 159
0.37912717 -0.32612345 0.23453656 160
0.37778845 -0.32347029 0.21873818 160
0.37607554 -0.32051364 0.20321557 160
0.37399608 -0.31726357 0.18798286 160
0.37082839 -0.31309694 0.17279811 161
0.37392589 -0.3143791 0.16005254 161
0.36490193 -0.30522004 0.14395355 162
0.36741582 -0.30602118 0.13146934 162
0.35690126 -0.29570144 0.11632215 163
0.35884988 -0.2960507 0.10416786 163
0.36739451 -0.30196959 0.092883676 163
0.3688862 -0.30189607 0.080421299 163
0.35711494 -0.29070196 0.067100853 164
0.36421049 -0.29534411 0.055225398 163
-0.31529924 0.17793429 0.046857931 117
-0.31551135 0.17717192 0.056331068 122
-0.32254502 0.18005942 0.066266716 128
-0.32231146 0.17904095 0.075925983 132
-0.32185242 0.17790498 0.085563704 134
-0.32116783 0.17665307 0.09517327 134
-0.31326646 0.17162286 0.10344545 134
-0.31215599 0.17017588 0.11277285 133
-0.32556671 0.17626464 0.12569547 131
-0.33084637 0.17808448 0.13727406 128
-0.32895532 0.17619471 0.14707518 125
-0.32683149 0.17419477 0.15680598 122
-0.33124626 0.17552295 0.16898093 112
-0.35631275 0.18724829 0.18996474 75
-1.5192209 0.7700094 0.71092761 194
-1.525418 0.76884788 0.76498997 190
-1.523598 0.76365274 0.81646341 193
-1.5260469 0.76055312 0.87127233 195
-1.5277603 0.75705385 0.92710465 195
