# .PCD v0.7 - Point Cloud Data file format
VERSION 0.7
FIELDS x y z intensity
SIZE 4 4 4 4
TYPE F F F F
COUNT 1 1 1 1
WIDTH 1301
HEIGHT 1
VIEWPOINT 0 0 0 1 0 0 0
POINTS 1301
DATA ascii
-4.4774504 1.7554691 0.23327512 89
-4.4527087 1.7348764 0.35750899 143
-4.4397936 1.7189686 0.48173788 144
-4.438664 1.7076392 0.60712975 144
-4.434423 1.6951269 0.73255181 143
-4.0933547 1.5552331 0.79663527 87
-4.016263 1.5161954 0.89810741 148
-4.0273719 1.510447 1.0174478 167
-4.019917 1.4977405 1.1336226 170
-4.0988998 1.5168874 1.2767271 183
-4.3817348 1.6101995 1.493557 140
-4.3774815 1.5977467 1.6258379 160
-4.3255634 1.5680727 1.7413697 163
-4.0050621 1.4423572 1.7422857 156
-3.7295792 1.3342257 1.7457693 156
-3.4769428 1.2355084 1.7450507 166
-3.2486494 1.146562 1.7428739 166
-3.0635705 1.0737764 1.7519206 181
-2.8932748 1.0069962 1.7595986 179
-2.731838 0.94407898 1.763532 186
-2.5848312 0.88685602 1.7681649 183
-2.4456148 0.83297515 1.7702161 190
-2.3148901 0.78261381 1.7708811 195
-2.2039201 0.73945153 1.7798034 190
-2.0880039 0.69518948 1.7787679 194
-1.9793715 0.65386999 1.777589 198
-1.8785478 0.61560738 1.7774923 200
-1.7957566 0.58362305 1.7892683 193
-1.702648 0.54874313 1.7864571 197
-1.6214566 0.51807207 1.7911354 197
-1.5417535 0.48825169 1.7932326 199
-1.462335 0.45890036 1.7913542 203
-1.3943739 0.43343836 1.7993438 207
-1.3216001 0.40683532 1.7976924 199
-1.2549404 0.3824136 1.8004289 203
-1.1889696 0.35851097 1.8006775 206
-1.1237676 0.33514851 1.7984842 210
-1.0676208 0.31471288 1.8074248 212
-1.0077902 0.29348105 1.8075852 214
-0.94484377 0.27166119 1.7986758 217
-0.89014578 0.25243634 1.801672 220
-0.8358776 0.23358162 1.8028545 221
-0.78249776 0.2152188 1.8031609 222
-0.73228616 0.19793563 1.8081664 210
-0.67941999 0.18019904 1.8041829 213
-0.63021791 0.16363716 1.8069501 214
-0.58096766 0.14728731 1.8072731 215
-0.53236049 0.13131964 1.8070565 215
-0.48383594 0.11560097 1.8044214 215
-0.43598935 0.10026844 1.8013076 214
-0.39030942 0.085614972 1.8045844 214
-0.34451312 0.071136229 1.8055819 215
-0.29904494 0.056921523 1.806266 216
-0.25372165 0.042935997 1.8056717 217
-0.20857677 0.029188333 1.8038101 218
-0.1643941 0.015729278 1.8086582 216
-0.11950511 0.002421787 1.8043162 216
-0.075591631 -0.010777818 1.8147247 211
-0.031033374 -0.023806965 1.8159387 208
0.013588357 -0.036674239 1.8159388 204
0.058242556 -0.049370706 1.8147248 201
0.10244174 -0.061579566 1.8043164 200
0.1475241 -0.07421653 1.8086586 199
0.19208926 -0.086349107 1.8038106 198
0.2386826 -0.099222124 1.8135877 194
0.28343359 -0.111044 1.8062667 194
0.32948923 -0.12322142 1.8055828 193
0.37762186 -0.13597816 1.8123863 194
0.42428812 -0.14794676 1.8090607 197
0.47340542 -0.16058394 1.8130827 198
0.52278787 -0.17307255 1.8146963 199
0.57537556 -0.1864073 1.8233685 200
0.62584925 -0.19877924 1.8219593 200
0.67705017 -0.21116 1.8199706 198
0.73164487 -0.2243865 1.823784 206
0.78334713 -0.23645647 1.8176897 202
0.83910203 -0.24954537 1.8180996 199
0.89903593 -0.2636382 1.8237934 193
0.95613629 -0.27660719 1.8204849 190
1.0176643 -0.29061902 1.8221935 186
1.0840909 -0.30576223 1.828565 185
1.098664 -0.30583572 1.7502722 130
1.0966874 -0.30132863 1.6529024 126
1.0945692 -0.29695126 1.5625149 129
1.1387942 -0.30543271 1.5393866 149
1.2023867 -0.31899798 1.5395392 162
1.2719091 -0.33386567 1.5433081 147
1.3431506 -0.3488715 1.5450928 152
1.3762392 -0.35356462 1.502537 169
1.413659 -0.35928312 1.4648551 167
1.5732222 -0.39616472 1.5436034 80
1.7436783 -0.43500483 1.6199481 45
2.319768 -0.56849557 1.9266948 53
2.4452622 -0.59320545 1.922767 51
1.3944421 -0.32125309 0.89558119 179
1.3739135 -0.313054 0.83341533 181
1.4581072 -0.32911432 0.83071309 94
1.7160145 -0.35642889 0.53863662 45
1.612172 -0.33079168 0.46233088 53
1.1502743 -0.2314879 0.30990767 194
1.1571862 -0.2303174 0.27910841 194
0.8126682 -0.15792237 0.1866983 184
0.60095745 -0.11368764 0.13314094 148
0.59450597 -0.111074 0.11604644 109
0.61299258 -0.113379 0.10174845 113
0.59784377 -0.10908965 0.084302939 117
0.63128304 -0.11417509 0.069679052 172
0.6162402 -0.10993765 0.052672219 174
-2.9737351 -0.071670152 0.093077116 183
-2.9882607 -0.078420445 0.17163312 176
-3.148268 -0.089689709 0.26114741 60
-3.174155 -0.097263582 0.34662759 59
-3.1322079 -0.10259588 0.42565182 93
-3.487673 -0.12247117 0.56195515 70
-3.5533805 -0.13254628 0.66725796 94
-3.5110986 -0.13846542 0.75515109 81
-3.0333593 -0.12529257 0.74167764 94
-3.1018474 -0.13501063 0.84357512 66
-3.0008311 -0.13694666 0.90204865 139
-3.0161462 -0.14429143 0.99265492 200
-3.0136201 -0.15080553 1.0794677 199
-3.0076547 -0.15715854 1.1664599 197
-3.0001023 -0.16343595 1.2542336 180
-3.1713512 -0.18026009 1.4211245 129
-3.5964084 -0.21343696 1.7191776 169
-3.4696152 -0.2135846 1.7723852 166
-3.24119 -0.20653574 1.7662793 174
-3.0512583 -0.20112163 1.7696123 179
-2.8849015 -0.19655289 1.7770905 187
-2.72036 -0.19140562 1.7770962 185
-2.5852151 -0.18775989 1.7881478 190
-2.4441333 -0.18307984 1.788141 196
-2.3184655 -0.17902564 1.7922057 188
-2.201369 -0.1751405 1.7965239 193
-2.0849464 -0.17081112 1.7953097 195
-1.9768939 -0.16671136 1.7951981 199
-1.8754494 -0.16274098 1.7954359 191
-1.78181 -0.15905762 1.7978994 194
-1.6893835 -0.15508766 1.7966944 196
-1.6043563 -0.15144467 1.7985135 197
-1.5197873 -0.14748162 1.7963582 202
-1.4472525 -0.14440435 1.8041108 208
-1.3698732 -0.14050262 1.8022062 200
-1.2989596 -0.13697621 1.8047106 203
-1.2288916 -0.13324124 1.8047301 207
-1.1641451 -0.12982461 1.8089749 209
-1.1000515 -0.12621185 1.8110557 213
-1.0366791 -0.12241271 1.8110086 214
-0.97409534 -0.11843739 1.8088723 216
-0.91603804 -0.11478318 1.8117784 218
-0.85503864 -0.11047776 1.8056828 221
-0.79872471 -0.10655311 1.805805 221
-0.74573392 -0.10286876 1.8106366 211
-0.69015127 -0.098569058 1.8064709 213
-0.6383788 -0.09461493 1.8090687 214
-0.58413476 -0.09003064 1.8016399 216
-0.53566933 -0.086179137 1.8088382 215
-0.48486713 -0.081714481 1.8060365 214
-0.43484145 -0.077158928 1.8027583 215
-0.38705489 -0.072821081 1.8058783 213
-0.33923677 -0.068277687 1.8067189 216
-0.29182488 -0.063619226 1.8072473 216
-0.24463987 -0.058806658 1.8064979 218
-0.19860536 -0.054117791 1.8124279 218
-0.15176913 -0.048990622 1.8091793 217
-0.1057347 -0.043952458 1.8126669 214
-0.059644859 -0.038733795 1.8149427 210
-0.013531638 -0.033338077 1.8160051 207
0.032572914 -0.027768975 1.8158534 203
0.078636758 -0.022030361 1.8144877 201
0.1246279 -0.016126335 1.8119088 200
0.1705144 -0.010061217 1.8081186 198
0.21626446 -0.0038395301 1.8031198 197
0.26303226 0.0025158674 1.8048271 195
0.31001014 0.0090770368 1.8052665 193
0.35716346 0.015840758 1.804427 193
0.40647942 0.022884633 1.8110676 195
0.45410496 0.030077804 1.8075848 196
0.50427192 0.037614897 1.8114409 198
0.55461717 0.045391232 1.812888 200
0.60826671 0.053642172 1.821383 200
0.6595614 0.061950423 1.8198038 199
0.71152717 0.070534036 1.8176429 198
0.76696658 0.079665706 1.8212727 205
0.8226192 0.089065924 1.8222575 202
0.86107618 0.096905276 1.7856858 202
0.87860173 0.102547 1.7111969 156
0.92120647 0.11095405 1.687488 132
0.91665846 0.11397894 1.5846181 134
0.91223985 0.11681521 1.4907354 136
0.9169203 0.12060403 1.4180706 138
0.91905516 0.1239718 1.3469739 132
0.9175601 0.12676582 1.2759151 136
0.91858667 0.12978922 1.2128848 138
0.92717797 0.13376829 1.1629132 142
0.92267418 0.13588633 1.1005423 147
0.92167431 0.13840911 1.0457669 151
0.91849208 0.14054577 0.99176729 158
0.92454481 0.14398053 0.94974554 154
0.92906111 0.14716554 0.90804338 159
0.92610067 0.14917856 0.86145961 165
0.92138749 0.15086061 0.81561822 172
0.92195976 0.15332183 0.77612728 175
0.92668653 0.15642367 0.74129277 178
0.9310587 0.15946043 0.70726985 181
0.92691565 0.16107266 0.6685037 185
0.92811185 0.16354154 0.63464612 189
0.90783376 0.16231209 0.58893782 189
0.40271237 0.076693885 0.2722629 113
0.394301 0.076170877 0.25405428 91
0.41354388 0.080538124 0.2504999 99
0.41136733 0.081114359 0.23607832 121
0.45308593 0.089715824 0.2410959 125
0.52637589 0.10436111 0.25649616 104
0.56927091 0.11362896 0.25643995 85
0.61246091 0.12314305 0.25422263 100
0.57043266 0.11645459 0.22313455 115
0.59064931 0.12168524 0.21239573 123
0.44506636 0.094357707 0.15842003 113
0.43231922 0.092824228 0.1429954 159
0.43449989 0.094237238 0.13138966 161
0.44410893 0.097170524 0.12105283 159
0.43795443 0.096899785 0.1080075 161
0.43922615 0.098145552 0.096247107 162
0.4236221 0.0958464 0.082951963 163
0.44085526 0.10045695 0.072627969 113
0.43339539 0.099840119 0.060497817 102
0.44126314 0.10251645 0.048931699 162
-2.8763623 -1.2174286 0.10572961 127
-2.8630369 -1.2189637 0.18704134 124
-2.9091504 -1.2460588 0.27260125 149
-3.103637 -1.3377055 0.37719741 175
-3.0989971 -1.3435745 0.46652627 175
-3.0921736 -1.3484941 0.55598134 178
-3.0831635 -1.3524491 0.64549983 174
-3.0871887 -1.3621774 0.73844296 177
-3.0817094 -1.367727 0.83037621 175
-3.0800982 -1.375029 0.92440408 178
-3.0699327 -1.3785093 1.0171009 180
-3.0713148 -1.3872312 1.1148291 178
-3.0632067 -1.3916831 1.2108498 177
-3.0585465 -1.3977367 1.3097723 174
-3.0596395 -1.4064887 1.4131603 173
-3.0503683 -1.4104999 1.5140412 180
-3.0514834 -1.4193927 1.6222891 179
-3.0502865 -1.4272866 1.7322255 178
-2.9861031 -1.4054631 1.8079996 180
-2.7980666 -1.3244234 1.8043171 177
-2.6250591 -1.2496028 1.7994611 182
-2.4735863 -1.1842533 1.7994838 181
-2.3235264 -1.1188009 1.791571 186
-2.2007394 -1.0658586 1.7961503 192
-2.0738873 -1.0102851 1.7901493 189
-1.9715471 -0.96614498 1.7981225 193
-1.8656912 -0.91973037 1.7969897 196
-1.766167 -0.87592489 1.7957019 199
-1.6792973 -0.83796388 1.801585 193
-1.5935568 -0.80012411 1.8037422 193
-1.5041201 -0.75994802 1.7964694 196
-1.4313171 -0.72783089 1.8037755 196
-1.3494778 -0.69066328 1.7952962 201
-1.287779 -0.66353905 1.8088591 207
-1.2172548 -0.63147539 1.8067013 200
-1.1483974 -0.59991097 1.8025339 204
-1.0888022 -0.57290483 1.8087636 207
-1.0259527 -0.54384035 1.8061175 211
-0.97154588 -0.5190047 1.8146675 212
-0.91400641 -0.49217951 1.8144131 214
-0.85727096 -0.46548301 1.8120718 216
-0.80139667 -0.4389489 1.8076853 218
-0.74948412 -0.41432494 1.8084923 221
-0.69855511 -0.38997561 1.80843 222
-0.64791644 -0.36550966 1.8057189 212
-0.60051644 -0.34264016 1.8087403 213
-0.55381501 -0.3199279 1.8111682 215
-0.50724208 -0.29703766 1.8111519 215
-0.45941278 -0.27311319 1.8029472 215
-0.41580376 -0.25150454 1.8076326 215
-0.37096539 -0.22888309 1.8041903 214
-0.32811099 -0.20727706 1.8071535 213
-0.28530949 -0.18547155 1.807837 216
-0.24292903 -0.16370863 1.8082098 217
-0.20082004 -0.14188758 1.8073053 218
-0.15971637 -0.12059395 1.8130841 218
-0.11805472 -0.098612025 1.8096814 216
-0.077086724 -0.076997012 1.8130178 213
-0.036137104 -0.055195488 1.815142 209
0.004765599 -0.033222441 1.8160527 205
0.045592938 -0.011093078 1.8157492 202
0.086316556 0.011177201 1.8142316 200
0.12632097 0.033447392 1.8035239 200
0.16733982 0.056078006 1.8075598 198
0.20758344 0.078676835 1.80241 197
0.2498759 0.10221623 1.8118708 195
0.29001975 0.12515932 1.8042476 194
0.33305767 0.14950155 1.8120657 194
0.37467179 0.17347777 1.8097303 195
0.41814965 0.1985154 1.8138288 196
0.46019942 0.22313246 1.8097801 198
0.5063526 0.24992606 1.8186834 199
0.55104554 0.27628872 1.8193781 200
0.59568799 0.30287227 1.8176293 199
0.6435467 0.33131433 1.8227055 196
0.68906075 0.35883898 1.8187424 205
0.73736185 0.38804418 1.8195426 204
0.76695657 0.40775666 1.7756931 152
0.76369947 0.41020775 1.6650914 136
0.76297319 0.41374671 1.5697269 139
0.76257503 0.41726211 1.4831673 142
0.76259816 0.42083621 1.4043598 143
0.76353985 0.42476884 1.3331039 137
0.76231045 0.42738885 1.2634808 138
0.7621786 0.43049791 1.2003397 141
0.7690044 0.43739882 1.1512642 145
0.76514578 0.43825427 1.090277 149
0.76372033 0.4403832 1.0362047 154
0.76515728 0.44406727 0.98871571 149
0.76986659 0.44958088 0.94745272 154
0.76824963 0.45142037 0.90094692 161
0.77020186 0.455275 0.86048967 165
0.76564896 0.45529678 0.81520581 171
0.77095115 0.46104473 0.78148198 174
0.77458191 0.46580535 0.74728644 178
0.77790177 0.47037423 0.71390468 183
0.80279261 0.48783854 0.699031 200
0.84608644 0.51650709 0.69732088 168
0.87081963 0.53421062 0.67960125 165
0.93803066 0.57786965 0.69005567 148
1.0128083 0.62655997 0.70107079 66
1.0566872 0.65672767 0.6885246 53
1.0944349 0.68336803 0.67014086 44
1.1319684 0.71009505 0.64977419 37
1.175481 0.74076885 0.63052815 25
1.1406512 0.72260404 0.57283086 34
1.1766182 0.74879664 0.54852676 25
0.1425759 0.098490179 0.09702529 130
0.14997201 0.10366543 0.094594583 144
0.14426441 0.10047187 0.087890171 145
0.14495304 0.10136932 0.083276436 144
0.14553759 0.10220325 0.07863611 143
0.14601777 0.10297272 0.073972397 143
0.14639354 0.10367689 0.06928847 145
0.1466648 0.10431493 0.064587556 146
0.14683156 0.10488605 0.059872869 146
0.14689395 0.10538957 0.055147644 146
0.14685214 0.10582475 0.050415117 146
0.14670636 0.10619097 0.045678534 146
-0.69338399 -0.69219542 0.066913418 153
-0.87060624 -0.87525523 0.10509837 112
-0.97062123 -0.98108178 0.14850922 93
-2.5239978 -2.5772996 0.41153458 162
-2.5226693 -2.5870101 0.50798219 171
-2.5133157 -2.588486 0.60361648 171
-2.5137968 -2.6001666 0.70232344 170
-2.5062485 -2.6035621 0.80002517 171
-2.5028992 -2.6113749 0.90010053 169
-2.5029211 -2.6227961 1.0029075 171
-2.4955919 -2.6265521 1.1044809 173
-2.4967265 -2.6393259 1.2114767 172
-2.490469 -2.644345 1.317071 172
-2.487186 -2.6526089 1.4262649 170
-2.4765871 -2.6531026 1.5334811 168
-2.4743922 -2.6627057 1.648137 168
-2.4691081 -2.66908 1.7636603 167
-2.3871152 -2.5919511 1.8248568 168
-2.226614 -2.4282007 1.8187878 174
-2.0833437 -2.2819369 1.8144356 173
-1.9562116 -2.1521952 1.8131199 182
-1.8407342 -2.0342298 1.8127809 181
-1.73599 -1.9271775 1.8140876 188
-1.6378249 -1.8265375 1.8140855 192
-1.545547 -1.7316211 1.8128372 196
-1.4590076 -1.6423417 1.8109355 192
-1.3820652 -1.5631735 1.8141339 194
-1.3029433 -1.4807941 1.8081409 197
-1.2368218 -1.4126097 1.8138875 200
-1.1717045 -1.3449709 1.8159076 192
-1.1036197 -1.2732644 1.8077563 196
-1.0448104 -1.2117342 1.809019 199
-0.98994988 -1.1542842 1.8123751 203
-0.93961984 -1.1016716 1.8197876 205
-0.88679934 -1.0456213 1.8182979 199
-0.83454806 -0.98973024 1.8132175 204
-0.7866019 -0.9385013 1.8127782 208
-0.74225622 -0.89116657 1.8165994 210
-0.69852656 -0.84415305 1.8182604 212
-0.65545565 -0.7975148 1.8177984 213
-0.61308461 -0.75130588 1.8152524 215
-0.57145315 -0.70557886 1.8106637 218
-0.53275251 -0.66310829 1.811283 221
-0.49688309 -0.62385046 1.8183321 221
-0.45917791 -0.58187652 1.8155205 210
-0.42209092 -0.54029214 1.8109906 213
-0.38748431 -0.50156194 1.8132488 214
-0.35306931 -0.46272194 1.8130629 215
-0.31926256 -0.4243266 1.8123448 215
-0.28573263 -0.38592699 1.8092097 214
-0.25392115 -0.3495563 1.8133744 214
-0.22231923 -0.31315315 1.8162276 213
-0.19002247 -0.27534443 1.8089364 215
-0.15905848 -0.23913613 1.8091532 217
-0.12837039 -0.20298025 1.8080938 218
-0.098398663 -0.16767669 1.8137213 217
-0.068190552 -0.13154791 1.8101647 216
-0.03847117 -0.096004657 1.8133496 213
-0.0088419504 -0.060298882 1.815322 209
0.020560011 -0.024326008 1.8080829 205
0.05006332 0.011501206 1.8156259 202
0.079298422 0.047545657 1.8139566 200
0.10784915 0.083294041 1.8030992 200
0.13723253 0.11979773 1.806982 198
0.16666389 0.15664014 1.8096145 195
0.19522005 0.19294722 1.8030804 195
0.22455214 0.23022714 1.8032098 193
0.25516322 0.26908934 1.8108661 194
0.28457487 0.30704728 1.8083738 195
0.31392029 0.34521157 1.8045759 197
0.34489062 0.38542151 1.8081005 199
0.37745807 0.42773548 1.8168292 200
0.40882081 0.46907592 1.8173544 200
0.43816864 0.50845695 1.8079596 200
0.47156698 0.55277526 1.8129307 197
0.50523502 0.59778595 1.8161932 204
0.53664058 0.64051712 1.8095788 201
0.57294756 0.68938261 1.8165654 197
0.604761 0.73330021 1.8074753 190
0.60726267 0.74222124 1.7169498 138
0.60496676 0.74510449 1.6212504 132
0.60280395 0.74788749 1.5334228 136
0.63311547 0.7904495 1.5276005 151
0.66090024 0.83021581 1.5143782 158
0.7040751 0.88949174 1.5322289 146
0.74136215 0.94191206 1.5339767 159
0.75927925 0.97029471 1.4960036 161
0.78629363 1.0103945 1.4751899 114
0.79947972 1.0331019 1.4295592 169
1.011225 1.325708 1.5551364 66
1.0351579 1.3640817 1.5162011 68
1.0584167 1.4018248 1.4759392 69
1.0891033 1.4496307 1.4447623 68
1.1110911 1.4862432 1.4015552 66
1.1530542 1.5497558 1.3809764 63
1.2108734 1.6350489 1.3748412 48
0.75930321 1.0344951 0.83642614 186
0.76892763 1.0525949 0.80257118 186
0.90211689 1.2389824 0.88289398 133
0.9208349 1.270552 0.85026217 137
0.91253072 1.2652198 0.79461932 69
0.90749323 1.2642792 0.74329591 72
0.90586472 1.2679957 0.69577199 72
0.90831292 1.2773705 0.65187454 72
0.91002935 1.2857528 0.60795116 69
0.88350177 1.2544236 0.54843426 75
0.90632129 1.2925047 0.5175789 68
0.91476262 1.3104764 0.47819728 67
0.91365355 1.3149458 0.43432951 67
0.90738112 1.3120152 0.38891309 68
0.90433496 1.3136637 0.34537688 66
0.91072839 1.3289453 0.30497023 61
0.89738303 1.3156508 0.25937381 64
0.79068428 1.1659245 0.19715162 72
0.59589517 0.88560611 0.13197125 181
0.59508651 0.88846993 0.10400503 193
0.59386063 0.89072591 0.075998023 193
0.51408905 0.77620149 0.04751588 181
-0.17635499 -0.39861876 0.055897776 93
-0.18503462 -0.42158043 0.068608195 79
-0.27906498 -0.6483205 0.10001663 82
-0.27396387 -0.64000446 0.11763421 81
-0.25924259 -0.60837215 0.13152346 84
-0.2475778 -0.58377659 0.14489149 86
-0.23928221 -0.56711239 0.15853772 87
-0.23058596 -0.54926145 0.17107449 91
-0.22866592 -0.55141383 0.20439945 173
-1.7322448 -4.3208508 1.4229715 152
-1.7260606 -4.3329382 1.5594674 158
-1.718667 -4.3422055 1.6976981 158
-1.7151492 -4.3615999 1.8429947 163
-1.5966555 -4.0858402 1.8609731 156
-1.4746258 -3.7973881 1.8576403 162
-1.3686333 -3.5469632 1.8573219 161
-1.2698555 -3.3121893 1.8513534 164
-1.1834483 -3.1069913 1.8491153 172
-1.1013066 -2.9104202 1.840531 176
-1.0311533 -2.7433312 1.8398634 181
-0.96484041 -2.5843637 1.8353591 189
-0.90685302 -2.4458737 1.8367203 186
-0.85011286 -2.3089213 1.8315042 192
-0.79929149 -2.186419 1.8301587 195
-0.75172031 -2.0712669 1.8281792 190
-0.70728338 -1.9633006 1.8261446 194
-0.66610318 -1.8630269 1.8252872 198
-0.62778306 -1.7694923 1.8255254 199
-0.59218174 -1.6824496 1.8273888 192
-0.55735499 -1.5964164 1.825587 194
-0.52334046 -1.5115155 1.820187 199
-0.49371409 -1.4383283 1.8241818 202
-0.46609053 -1.3700622 1.8307298 205
-0.4376395 -1.2983212 1.8291179 209
-0.40966219 -1.2269462 1.823913 203
-0.38395903 -1.1614758 1.8233654 207
-0.35882705 -1.0967863 1.820383 209
-0.33681506 -1.0409284 1.8286537 212
-0.31275165 -0.97769475 1.8211647 213
-0.29044625 -0.91911221 1.8184139 215
-0.26970956 -0.86473483 1.8207494 218
-0.24837458 -0.80749357 1.8140546 221
-0.22953478 -0.75774169 1.8209299 222
-0.2100025 -0.70481813 1.8179339 212
-0.19090274 -0.65249026 1.8132219 214
-0.1730472 -0.6037097 1.8153104 214
-0.15541287 -0.55490541 1.8149549 214
-0.13818032 -0.50674051 1.8140696 215
-0.12177481 -0.46094874 1.8194592 214
-0.1050784 -0.41311961 1.8147748 214
-0.089155801 -0.36760905 1.8174702 214
-0.073116966 -0.32056722 1.8100166 216
-0.057948381 -0.27672336 1.8179774 216
-0.042557772 -0.23055032 1.8088634 218
-0.027741682 -0.18665494 1.8143394 217
-0.013020009 -0.14193392 1.810629 216
0.0014703963 -0.097916499 1.8136625 212
0.015815701 -0.053785093 1.8154833 210
0.030005794 -0.0095703369 1.8160906 205
0.044030771 0.034697074 1.8154835 203
0.057880923 0.078986369 1.8136626 200
0.071195334 0.12271912 1.8026558 199
0.084606811 0.16675992 1.7984312 198
0.098288819 0.21167722 1.8009342 196
0.11187838 0.25689158 1.8021787 195
0.12536398 0.30237043 1.8021531 194
0.1394611 0.34981558 1.8096477 194
0.15206565 0.39420703 1.7992214 197
0.16593514 0.44223911 1.8030434 197
0.17986429 0.49105659 1.806402 198
0.19364268 0.54011285 1.8073494 200
0.20837891 0.59243888 1.8153117 200
0.22109398 0.63984644 1.8057566 199
0.23475051 0.69048941 1.803157 198
0.24923338 0.74419183 1.8054049 205
0.26381913 0.79894626 1.8068374 202
0.27836278 0.85434109 1.8064986 197
0.29284582 0.91032386 1.804358 193
0.30709514 0.96636587 1.7995212 190
0.32267433 1.0273249 1.8005252 186
0.33821651 1.089056 1.7994232 182
0.35505402 1.1558201 1.8027691 177
0.37205622 1.2241225 1.8045032 182
0.37566128 1.2496903 1.7442514 123
0.37548408 1.2628459 1.6706778 122
0.37320065 1.2688106 1.5923152 125
0.36989799 1.2710594 1.5140865 129
0.36908424 1.2814717 1.4492102 135
0.3691895 1.2949282 1.3905042 140
0.36690494 1.3000381 1.3259033 137
0.36766124 1.3156497 1.27406 142
0.36420646 1.3163713 1.2106206 148
0.36226276 1.3222786 1.1543453 153
0.36129352 1.3316038 1.1028712 156
0.36157829 1.3454828 1.056411 158
0.35994503 1.3523655 1.0060134 162
0.35767072 1.3568146 0.95544744 164
0.35498431 1.3596337 0.90535456 167
0.086856805 0.35874322 0.24485359 158
0.085529715 0.35699862 0.23149389 157
0.082091831 0.34695086 0.21450558 158
0.082373023 0.35133368 0.20511653 157
0.080777816 0.34831011 0.19255677 158
0.079103783 0.34488684 0.18028241 158
0.079162538 0.34839758 0.1709756 158
0.07712017 0.34335643 0.15880178 157
0.075238816 0.33886328 0.14728159 155
0.073297724 0.33401591 0.13609242 154
0.0730993 0.33639637 0.12711193 150
0.080229484 0.36996943 0.12493347 146
0.33168942 1.4532417 0.32066563 182
0.32829672 1.4528012 0.28030798 182
0.32467377 1.4512925 0.24020228 180
0.31885475 1.439996 0.19943729 182
0.31655285 1.4441415 0.16078405 182
0.31229135 1.4394941 0.12163274 182
0.30954769 1.4416389 0.083055824 181
0.30488661 1.4349731 0.044452716 179
-0.028105918 -1.1366554 0.048185963 195
-0.025810923 -1.144219 0.078177035 194
-0.022387253 -1.0771034 0.10445193 193
-0.01924042 -1.0094332 0.12723643 163
-0.016973909 -0.9990043 0.15276945 183
-0.01474278 -0.98793131 0.17781195 184
-0.012749213 -1.0088089 0.207615 178
-0.010524974 -0.99537182 0.23229495 165
-0.0084105171 -1.0145699 0.26355863 177
-0.0062089665 -1.025019 0.29405877 182
-0.0039978996 -1.018144 0.32080022 174
-0.0018516011 -1.0019454 0.3447687 181
0.00023678702 -0.98614168 0.36839223 181
0.0019778891 -0.93871766 0.38028169 130
0.0037759538 -0.91374791 0.39859208 149
0.0059977695 -0.92721868 0.43202513 144
0.008275752 -0.9395445 0.4664 99
0.011271938 -0.98762923 0.51944649 90
0.066003859 -3.5629683 1.8743687 163
0.069146067 -3.3400424 1.8719803 171
0.071569838 -3.1267192 1.8632694 175
0.073940717 -2.9451814 1.8625706 181
0.075971633 -2.7784667 1.8618859 187
0.077380501 -2.6147137 1.8543479 186
0.079081178 -2.4799664 1.8590232 190
0.080031455 -2.340502 1.8530446 195
0.080703117 -2.2093165 1.846117 186
0.08139848 -2.0922859 1.8440418 190
0.08166226 -1.9769313 1.8371212 195
0.082089573 -1.8757098 1.8371824 198
0.082149953 -1.7758831 1.8332138 192
0.082144797 -1.683075 1.8311088 195
0.082107902 -1.5969596 1.8313706 198
0.082107581 -1.5178329 1.8352454 201
0.081788406 -1.4390001 1.8354539 206
0.081235595 -1.3618315 1.8335899 209
0.080381349 -1.2851915 1.8281342 202
0.079633906 -1.2148627 1.8273568 206
0.078650303 -1.14548 1.8241476 210
0.078086689 -1.0854177 1.8322222 212
0.076984078 -1.0217676 1.8314518 214
0.075671792 -0.95892191 1.8285977 215
0.074157566 -0.89694637 1.8237017 218
0.072812304 -0.83973968 1.8249412 220
0.071236417 -0.78269702 1.8235086 221
0.069476776 -0.72632205 1.8203284 212
0.067892075 -0.67385036 1.8238449 213
0.066087805 -0.62137729 1.8249012 214
0.064146101 -0.56962943 1.8253945 213
0.061699562 -0.51578313 1.8157755 214
0.0597158 -0.46716449 1.8210061 214
0.057239275 -0.41658118 1.816156 213
0.054913893 -0.3684133 1.818694 214
0.052418061 -0.32041103 1.8199304 216
0.049472906 -0.27124667 1.8109835 218
0.046659235 -0.22391458 1.8096142 218
0.043913506 -0.17764997 1.8149387 217
0.040772587 -0.13068549 1.8110744 216
0.037679702 -0.084438004 1.8139564 212
0.03422476 -0.037973262 1.8076297 209
0.030965077 0.0081665469 1.816081 205
0.027347824 0.054459233 1.8153222 203
0.023560632 0.10070264 1.8133497 200
0.019488085 0.14619918 1.8021936 199
0.015487848 0.1929132 1.8057702 197
0.011208504 0.23881632 1.800168 196
0.0068319589 0.28582934 1.8012583 195
0.0022601411 0.33304447 1.8010776 195
-0.0025051143 0.38042679 1.7996155 194
-0.0074621923 0.42817873 1.7978333 197
-0.012637222 0.47791699 1.801492 198
-0.017995313 0.52581382 1.7960657 200
-0.023768339 0.58154953 1.8130642 200
-0.029580109 0.63040727 1.8057196 201
-0.035685156 0.68178809 1.8035346 200
-0.042035185 0.73384559 1.8007637 198
-0.048593558 0.78578782 1.795534 195
-0.055599615 0.84183019 1.7968694 202
-0.062883809 0.89844662 1.7964367 197
-0.070699967 0.95941663 1.8012215 193
-0.07852526 1.0166937 1.7961959 190
-0.086964741 1.0790468 1.7969942 185
-0.095727354 1.1420945 1.7956841 180
-0.1051793 1.2103083 1.7988048 177
-0.11176419 1.2411579 1.7470537 138
-0.11508177 1.2341869 1.6481984 133
-0.1193317 1.2393208 1.5710473 139
-0.12265641 1.2354587 1.4879122 143
-0.12604356 1.2334957 1.4119662 141
-0.13018881 1.2401391 1.3494117 146
-0.13281764 1.2323853 1.2754669 154
-0.13753149 1.2455486 1.2254639 162
-0.14805144 1.3125472 1.2255933 164
-0.15543637 1.3485025 1.1957972 171
-0.1708297 1.4542516 1.221915 169
-0.1779249 1.4839368 1.1831927 180
-0.18262056 1.492449 1.1290658 197
-0.19775702 1.5877472 1.136121 86
-0.04536368 0.31528872 0.24982415 120
-0.045808088 0.31277856 0.23674114 156
-0.04628456 0.31067234 0.2244259 158
-0.045782343 0.30116194 0.20855743 146
-0.047959428 0.31229225 0.20413662 158
-0.047163643 0.30098835 0.18854675 145
-0.048340887 0.30451691 0.1805243 145
-0.049500242 0.30783311 0.17240863 145
-0.048545808 0.29612568 0.15852194 145
-0.049611758 0.29887339 0.15062989 144
-0.050656471 0.30141303 0.14266512 144
-0.050553147 0.2961477 0.13238676 144
-0.051526319 0.29821327 0.12449465 116
-0.062165309 0.3635639 0.13173985 64
-0.93484527 5.9943447 1.3128397 118
-0.27074108 1.6813792 0.35426116 32
-0.22673929 1.3817917 0.26149783 140
-0.23574951 1.4187522 0.22897421 150
-0.23289907 1.3822722 0.18712051 138
-0.23377432 1.3692437 0.14918278 167
-0.20694692 1.1917102 0.10387015 196
-0.21387236 1.2170322 0.072765663 190
0.27761051 -0.74068445 0.049652278 154
0.27904084 -0.73970932 0.070351861 158
0.25637388 -0.67682815 0.087150998 161
0.19154269 -0.507083 0.090704694 146
0.18591844 -0.48965308 0.10298803 147
0.17720474 -0.46464097 0.11325131 160
0.17454496 -0.45509568 0.12493937 161
0.1746767 -0.45260686 0.13766792 161
0.17760508 -0.45705521 0.15204652 162
0.17161883 -0.43951374 0.16100696 163
0.16843607 -0.42902488 0.17119491 165
0.16804941 -0.42544019 0.18321383 166
0.16753229 -0.42156801 0.19513768 167
0.64996219 -1.5662611 0.7080127 199
0.65257072 -1.5626993 0.75877213 198
0.65709466 -1.563607 0.8127501 197
0.65851545 -1.5571544 0.86429167 197
0.66213506 -1.5557976 0.91974962 196
0.66786712 -1.5592335 0.97963178 205
0.66975331 -1.5536884 1.035836 205
0.67127466 -1.5472622 1.0929723 201
0.67476153 -1.5452437 1.154901 196
0.6774317 -1.5412748 1.2175113 194
0.67926061 -1.5353274 1.2807347 188
0.68281627 -1.5331341 1.3494117 184
0.68540424 -1.5286609 1.4188886 181
0.68730927 -1.5225626 1.4897366 176
0.690337 -1.518788 1.565973 180
0.69494414 -1.5182581 1.6492978 176
0.69826591 -1.5147338 1.7337108 171
0.69997299 -1.5075526 1.8183694 188
0.67705059 -1.4480683 1.8425708 198
0.64276737 -1.3652898 1.8340921 202
0.61500978 -1.297034 1.8401588 205
0.58544755 -1.2257577 1.8380426 211
0.55810803 -1.1598094 1.8396506 203
0.53062087 -1.0942553 1.8379502 206
0.50352764 -1.0301951 1.8346295 209
0.4784627 -0.9708752 1.8357716 212
0.45347705 -0.91232693 1.8347931 213
0.43224761 -0.86175346 1.8467228 212
0.40572149 -0.801368 1.8346788 218
0.3810834 -0.74528664 1.8276875 219
0.35964459 -0.69587946 1.8333962 219
0.3367157 -0.64414823 1.8301131 210
0.31406251 -0.59346431 1.8260489 214
0.29263061 -0.54553026 1.8269335 214
0.27134502 -0.49832153 1.8272575 214
0.24992007 -0.4513239 1.825146 213
0.22866243 -0.40508103 1.8225341 213
0.20732698 -0.35916847 1.8175186 213
0.18703018 -0.31541511 1.819899 214
0.16577905 -0.27054191 1.8121204 216
0.14608683 -0.22847873 1.8197781 217
0.12498038 -0.18469021 1.810346 218
0.10500617 -0.14285038 1.815519 217
0.084415503 -0.10053798 1.811501 215
0.064129412 -0.058851987 1.8142315 212
0.043663189 -0.01719249 1.8157492 208
0.023030953 0.024411522 1.8160527 204
0.0022102259 0.065620139 1.8071482 202
-0.018616423 0.10683953 1.8050337 200
-0.039565004 0.14791763 1.8017125 199
-0.060620718 0.18882602 1.7971871 198
-0.082112759 0.23059101 1.7993832 196
-0.10387439 0.27249727 1.8003191 195
-0.12589121 0.31451344 1.7999834 194
-0.14814837 0.35660797 1.7983655 195
-0.17072196 0.39897165 1.7964265 195
-0.19342583 0.44114935 1.7922097 194
-0.21828797 0.48784932 1.8029484 199
-0.24361134 0.534953 1.8111532 201
-0.26738495 0.57800287 1.8036479 202
-0.29238802 0.62329501 1.8012938 199
-0.3178719 0.66911995 1.7983514 197
-0.34490871 0.71774364 1.800236 204
-0.37260225 0.76718926 1.8012979 201
-0.39916918 0.81373733 1.7934823 197
-0.42937839 0.86728877 1.7980661 193
-0.4564054 0.91375411 1.7859514 190
-0.48949221 0.9719736 1.7934444 186
-0.52135134 1.0270759 1.7919263 183
-0.54111004 1.0576062 1.7480701 142
-0.5446564 1.0560799 1.6568376 135
-0.54600602 1.0505613 1.566008 139
-0.54804951 1.0467038 1.4835011 136
-0.55592966 1.0543264 1.4210986 141
-0.55763793 1.0502425 1.3473397 146
-0.56010944 1.0478216 1.2797438 152
-0.56424361 1.0487061 1.2194357 159
-0.56723201 1.0475609 1.1598498 166
-0.56872892 1.0437684 1.1004015 163
-0.57562959 1.0501102 1.0534705 168
-0.58136886 1.0543311 1.0061843 172
-0.58324015 1.0515172 0.9544341 175
-0.18023995 0.31361267 0.30363706 183
-0.15093222 0.25889173 0.24753033 151
-0.14753029 0.25131318 0.23099387 145
-0.1504619 0.25513938 0.22330333 146
-0.1494671 0.25196251 0.21104248 146
-0.14519708 0.24304526 0.19577812 147
-0.14766695 0.2460718 0.18831713 147
-0.14240398 0.2355608 0.17354144 148
-0.14868625 0.24523588 0.16989952 146
-0.15083127 0.24766153 0.16235135 146
-0.14865163 0.24262649 0.15155306 146
-0.14674172 0.23810856 0.14144982 146
-0.14850383 0.23989367 0.13409732 146
-0.15017359 0.24150729 0.12668341 130
-0.15569788 0.24960688 0.12123247 132
-0.15721814 0.25090981 0.11350775 103
-0.15863858 0.25203446 0.10573571 98
-0.15589657 0.24623279 0.096515864 93
-0.15708059 0.24697937 0.088871837 92
-0.1540405 0.2407677 0.080205567 94
-0.1549935 0.24115428 0.072714061 92
-0.15584528 0.24137114 0.065203212 96
-0.14820664 0.22781307 0.056946047 100
-0.14881638 0.22769727 0.049830526 105
0.38406208 -0.41847375 0.050058078 126
0.37923136 -0.41158885 0.064633347 115
0.37412056 -0.40445837 0.078776337 121
0.36873984 -0.39709595 0.092477888 123
0.36241347 -0.38879719 0.10561519 130
0.34555614 -0.36958659 0.11613967 143
0.34492588 -0.36736566 0.12935665 140
0.34951061 -0.37054032 0.14404996 146
0.34837067 -0.36778811 0.15734656 149
0.34155896 -0.35923913 0.1686226 148
0.3399446 -0.35605121 0.18155298 147
0.32667959 -0.34105009 0.18940289 151
0.32997882 -0.34290895 0.20425895 121
1.6598939 -1.6796979 0.90666628 29
1.5492077 -1.5613806 0.91342944 74
1.5256346 -1.5309227 0.96443003 95
1.5004925 -1.4991019 1.0136139 103
1.4699966 -1.4621955 1.0582497 127
1.4798269 -1.465216 1.1311307 159
1.4723659 -1.4511856 1.1930286 208
1.4641912 -1.4364945 1.2553796 211
1.3993015 -1.3668146 1.2693725 168
1.3196534 -1.2834386 1.2654256 162
1.2992433 -1.2576799 1.3131819 182
1.306309 -1.2583365 1.3892508 187
1.3022951 -1.2483268 1.456596 185
1.3061345 -1.2457267 1.5351584 179
1.3117509 -1.2446911 1.6193138 173
1.3113313 -1.2378629 1.699906 168
1.3171614 -1.2367727 1.7924155 165
1.2947177 -1.2093077 1.8505173 196
1.2297978 -1.1427944 1.8479506 193
1.165611 -1.077502 1.8417941 197
1.1103215 -1.0208645 1.8451513 202
1.0550265 -0.96467721 1.8448446 206
1.0007359 -0.9098537 1.8424761 210
0.94661558 -0.85563523 1.8365198 203
0.89695716 -0.80583829 1.8352827 207
0.84780163 -0.75689429 1.8316199 210
0.80540204 -0.71427727 1.8393018 212
0.76015294 -0.66950864 1.8381151 214
0.71532571 -0.62547183 1.8348504 215
0.6709711 -0.58220804 1.8295492 218
0.63003844 -0.54221189 1.8304148 220
0.58906811 -0.50250649 1.8286092 221
0.54844075 -0.46341497 1.8250604 211
0.5106324 -0.42696545 1.8282337 213
0.47065476 -0.38904351 1.8213816 215
0.43513355 -0.35501069 1.8291016 213
0.39581138 -0.3182376 1.8191304 213
0.36039954 -0.28481737 1.8240429 214
0.32331163 -0.25037965 1.8188618 213
0.28798294 -0.21753281 1.8210847 215
0.25137234 -0.18403174 1.8131441 216
0.21624157 -0.15185268 1.8127382 218
0.18199989 -0.12047951 1.8189986 216
0.14685161 -0.088759713 1.8160805 216
0.11181048 -0.057372265 1.8119086 215
0.077271402 -0.02643518 1.8144875 211
0.042366534 0.0043644346 1.8078563 209
0.0077557676 0.035131745 1.8160052 204
-0.027069552 0.065399617 1.80695 202
-0.062182214 0.096146375 1.8126671 200
-0.096829228 0.12580064 1.8012127 199
-0.13176949 0.15571122 1.7965368 198
-0.1681903 0.18712798 1.8064984 195
-0.2034381 0.21684408 1.799361 195
-0.23969713 0.24742624 1.7988702 195
-0.27620506 0.27798739 1.7970967 195
-0.31310692 0.30867758 1.795001 197
-0.35157925 0.3406601 1.7983326 198
-0.3907437 0.3730092 1.8011932 198
-0.43200707 0.40707108 1.8092233 200
-0.47026548 0.43793151 1.8015573 201
-0.51052183 0.47041449 1.7990341 200
-0.55142331 0.50320804 1.7959205 198
-0.592381 0.53576308 1.7903488 195
-0.63655567 0.5709672 1.7913148 202
-0.68132168 0.60638022 1.7905092 197
-0.72627646 0.64164001 1.787027 194
-0.77208459 0.67734343 1.7826016 191
-0.82154661 0.71595246 1.7830976 186
-0.87171638 0.75482643 1.7814848 181
-0.92601222 0.79693663 1.7842736 176
-0.97758257 0.83629954 1.7782128 172
-1.0334456 0.87899792 1.7762319 170
-1.0905559 0.92237198 1.772512 178
-1.1559131 0.97235173 1.7775143 176
-1.2188005 1.0197812 1.774215 177
-1.2820023 1.0670421 1.7672409 179
-1.3508786 1.1186111 1.7636025 180
-1.2392493 1.019904 1.5373254 202
-1.1478667 0.93903571 1.3532233 211
-1.0933762 0.88936919 1.2241148 175
-1.0991285 0.88948226 1.1663176 179
-1.1032701 0.88832664 1.1091045 183
-1.1007521 0.88183272 1.047905 191
-1.1068019 0.88232988 0.99669659 187
-1.1115079 0.88177282 0.94592136 189
-1.1148857 0.88018507 0.89563262 187
-1.1114924 0.87326068 0.84195215 194
-1.1128693 0.87018341 0.79344493 188
-1.129895 0.87944424 0.75621676 191
-1.1283221 0.87408233 0.70796281 187
-1.1313014 0.87232101 0.66362178 186
-1.1339447 0.87032056 0.62004644 187
-1.1348073 0.8669675 0.57650429 188
-1.1413795 0.86802924 0.53635126 172
-1.2971516 0.98311424 0.55557287 60
-4.0973783 3.1091652 1.5128119 153
-1.2700303 0.95364785 0.45325726 145
-1.2156171 0.9083007 0.39297456 136
-1.1985924 0.89141577 0.34659857 134
-0.90738863 0.66979504 0.24202101 181
-0.91266787 0.67069852 0.21243621 188
-0.91094619 0.66639918 0.18177046 188
-0.90854424 0.6616255 0.1514263 192
-0.90547085 0.65638947 0.12142568 182
-1.2671697 0.91771752 0.11103753 129
-1.1698382 0.8427915 0.068042345 93
0.25171897 -0.12272431 0.048155949 108
0.51363087 -0.24153142 0.066778056 138
0.521613 -0.24382144 0.082212716 183
0.54283661 -0.25204274 0.099463388 189
0.57902426 -0.26686496 0.11992458 199
0.68244231 -0.31147346 0.1532228 198
1.2821543 -0.57552892 0.28590107 197
1.2843473 -0.57318348 0.32416025 198
1.2855828 -0.57040328 0.36263844 200
1.2787393 -0.56409276 0.39933842 176
1.278067 -0.56048244 0.43796602 184
1.2843031 -0.55984014 0.479395 176
1.3817141 -0.59815204 0.55543828 105
1.8684599 -0.80144846 0.79431981 56
1.872907 -0.79841816 0.85653281 60
1.861226 -0.78857124 0.91269583 61
1.599991 -0.67465019 0.84475911 92
1.5269338 -0.64009762 0.86074537 188
1.5482149 -0.64476299 0.92660522 189
1.8411422 -0.76042825 1.1597292 65
1.8741584 -0.76883328 1.2493048 66
1.8782369 -0.76533341 1.3237783 65
1.8676285 -0.75587517 1.390303 65
1.8922322 -0.76044202 1.4852667 53
1.8956299 -0.7564289 1.5680498 45
1.8231716 -0.72256285 1.5899916 62
1.7515584 -0.68937349 1.6094582 65
1.5237339 -0.5961383 1.4788823 191
1.4780505 -0.57405269 1.509671 181
1.4546075 -0.56062901 1.562521 177
1.375357 -0.52619964 1.5555294 170
1.2814369 -0.48668638 1.5267379 180
1.2361146 -0.46571431 1.5500717 177
1.1700491 -0.43731049 1.5456871 179
1.157905 -0.42888972 1.6100467 155
1.1529555 -0.4230296 1.6882801 153
1.1492971 -0.41753122 1.7737348 152
1.1333115 -0.40755036 1.8458666 212
1.0651461 -0.37928191 1.8353271 210
1.0059127 -0.35445833 1.8359389 212
0.94729108 -0.3301366 1.8344396 213
0.88934523 -0.30633646 1.8308697 216
0.83549899 -0.28419209 1.8324443 219
0.77891648 -0.26141623 1.8249513 221
0.7265774 -0.24030271 1.8237821 222
0.67722827 -0.22039312 1.8273977 212
0.6254735 -0.19997256 1.8219577 214
0.57714826 -0.18085849 1.8233671 214
0.52882344 -0.16197632 1.8223333 213
0.48113361 -0.14351526 1.8207793 214
0.43357217 -0.1253293 1.8168117 213
0.3883951 -0.10801673 1.8201863 213
0.34175503 -0.090545952 1.8144069 214
0.29676172 -0.073711582 1.8141485 216
0.25208959 -0.05716151 1.8135871 218
0.20758131 -0.040859617 1.8117528 217
0.1640168 -0.024900071 1.8166229 216
0.11973776 -0.0090535879 1.8122971 214
0.07607273 0.0065723993 1.8147247 210
0.032149155 0.021923136 1.8079412 208
-0.011535475 0.037370794 1.8159388 203
-0.055417795 0.052521706 1.8147248 201
-0.09931159 0.067493111 1.8122975 200
-0.1425495 0.08187516 1.800694 198
-0.18701129 0.096856773 1.8038106 197
-0.23075603 0.11122932 1.7977568 196
-0.27561915 0.12597719 1.7983841 195
-0.32073379 0.14062262 1.7977383 194
-0.36606705 0.15515336 1.7958094 196
-0.41362876 0.17043449 1.8013086 197
-0.45951718 0.18476668 1.7967248 198
-0.51020145 0.20085429 1.8070579 200
-0.5590874 0.21594688 1.8072746 200
-0.60871941 0.23109952 1.8069518 200
-0.65566355 0.24498564 1.7967558 198
-0.70886093 0.26104483 1.8008195 196
-0.75924015 0.27579296 1.7949915 203
-0.81361568 0.2917867 1.795683 200
-0.86861002 0.30774799 1.7945956 196
-0.9278546 0.32497472 1.7986778 193
-0.97976416 0.33932298 1.7861072 189
-1.0448464 0.3580558 1.7938982 183
-1.1105335 0.37667927 1.798486 178
-1.1679465 0.39216092 1.7867998 174
-1.235804 0.41092685 1.7876137 170
-1.3086818 0.43105653 1.7914132 168
-1.383276 0.45141062 1.7931963 176
-1.4532877 0.46991259 1.7853425 176
-1.5348983 0.49187058 1.7873607 176
-1.6117009 0.51190048 1.7796786 180
-1.7008437 0.53552067 1.7808772 178
-1.7912282 0.55912024 1.7784109 177
-1.8827305 0.58265579 1.7722195 184
-1.9869758 0.60973114 1.7724752 183
-2.0933576 0.63698345 1.7688652 179
-2.2063675 0.66577095 1.7648492 176
-2.3277309 0.69656742 1.7610719 180
-2.4640465 0.73128957 1.7613286 175
-2.6012547 0.76565135 1.7548269 168
-2.7539337 0.80394465 1.7507516 170
-2.9216919 0.84594357 1.7473847 163
-3.0989261 0.88991964 1.740281 161
-3.2986045 0.93952996 1.7353543 151
-3.5221155 0.9950105 1.7312354 145
-3.7920241 1.0625583 1.7358996 150
-4.0790434 1.1336564 1.7330201 153
-3.9066577 1.0760982 1.538945 181
-3.862313 1.054618 1.403141 183
-3.8450871 1.0407966 1.2809957 158
-3.8001623 1.0196294 1.1537974 169
-3.7907338 1.0082272 1.040355 170
-3.7856994 0.99808067 0.93007475 166
-4.1042848 1.0637 0.77275848 145
-4.1236129 1.0592797 0.66154414 141
-4.1247187 1.0501343 0.54802716 141
-4.1141906 1.0380586 0.43417352 142
-4.0687585 1.0172719 0.31919909 141
-3.9650106 0.98216826 0.20483017 154
-3.6174483 0.88729191 0.093128607 128
0.56706148 -0.031765513 0.053774558 112
0.55071634 -0.029863557 0.067955047 150
0.53302693 -0.027976576 0.081214085 128
0.54089218 -0.027133826 0.096022703 139
0.52254766 -0.02531701 0.10812592 159
0.52075392 -0.024133934 0.1217956 160
0.5264768 -0.023192884 0.13679238 160
0.52392715 -0.021981332 0.15055253 160
0.52978414 -0.021005908 0.1662543 160
0.49450934 -0.01897219 0.1718635 154
0.4189437 -0.016167844 0.16418348 126
0.42428395 -0.015360086 0.17781088 107
0.37339184 -0.013487334 0.1726543 105
0.36993533 -0.012604763 0.18238865 109
0.38941193 -0.012053968 0.20136572 85
0.35491863 -0.010775758 0.19838609 138
0.35804331 -0.010004846 0.21099827 150
0.37596732 -0.0093208319 0.23144275 112
0.39304999 -0.0085438844 0.25293085 115
0.430152 -0.0077330964 0.28722444 143
0.86200488 -0.0068595619 0.56103915 193
0.99422419 -0.0045550587 0.6761924 195
0.99146152 -0.0021964209 0.71148437 195
0.99322158 0.00020889379 0.7511152 193
0.98797172 0.0025893194 0.78707969 193
0.98777175 0.0050380337 0.8282184 190
0.985309 0.0074914554 0.86920321 188
0.98210913 0.009961715 0.91124773 185
0.98322123 0.012545316 0.95912737 193
0.98247695 0.015144493 1.0076448 189
0.97428066 0.017610703 1.050988 185
0.96988124 0.020198684 1.1004425 180
0.96879327 0.022931479 1.1563721 175
0.96541643 0.025658153 1.2129494 172
0.9652639 0.028567884 1.2771771 168
0.95702237 0.031253181 1.3349464 165
0.95615637 0.034309864 1.4070212 172
0.95158958 0.037312862 1.479073 169
0.94865125 0.040504988 1.5594169 163
0.94212657 0.043644674 1.6405561 158
0.94022393 0.047183253 1.7372139 164
0.93340749 0.050618965 1.8339359 228
0.8716709 0.050639011 1.8281354 220
0.81421244 0.050676726 1.8276281 220
0.75777984 0.050539635 1.8262743 221
0.7016198 0.050174028 1.8222774 213
0.64893806 0.049852852 1.8240943 213
0.59696823 0.049373291 1.8253338 213
0.5427528 0.048441872 1.8164843 215
0.49182826 0.047598392 1.8147044 215
0.44307265 0.046782997 1.8182753 213
0.39295793 0.045588456 1.8136849 214
0.34320551 0.044197313 1.8067189 216
0.29690444 0.043114252 1.8151343 216
0.24817616 0.041418418 1.8064979 218
0.20192558 0.039986115 1.8124279 218
0.15484436 0.038172908 1.8091793 217
0.10856926 0.036391765 1.8126669 215
0.062226165 0.034434289 1.8149427 210
0.015777182 0.032126054 1.8080074 208
-0.030395813 0.029830059 1.8078563 204
-0.076888941 0.027516672 1.8144877 202
-0.12318184 0.024867784 1.8119088 200
-0.16861537 0.021921331 1.8001565 199
-0.21545647 0.019067489 1.8031198 198
-0.26137409 0.015920851 1.7969155 196
-0.30849105 0.012700109 1.7973883 195
-0.35579824 0.0092901886 1.7965877 195
-0.40528357 0.0057536624 1.8032725 194
-0.45309442 0.0019495953 1.7998391 197
-0.50098789 -0.0020405073 1.7950982 198
-0.55403388 -0.006211333 1.8052573 201
-0.60500646 -0.010625362 1.8053069 201
-0.65669096 -0.015264146 1.8048145 202
-0.70537657 -0.02006291 1.7944585 199
-0.7607199 -0.025203709 1.7983407 196
-0.81672376 -0.030608289 1.8005002 204
-0.86932611 -0.036140222 1.7928474 199
-0.93002921 -0.042189561 1.7986388 194
-0.98766643 -0.048379514 1.7954533 192
-1.0457437 -0.054829527 1.7904243 188
-1.1127801 -0.06196418 1.7970268 183
-1.1763738 -0.069213286 1.7946413 178
-1.240567 -0.076764524 1.790092 166
-1.3100896 -0.084902145 1.7897371 171
-1.3803973 -0.093386494 1.7868968 169
-1.4571741 -0.10259457 1.7884272 176
-1.5342602 -0.11215541 1.7863327 173
-1.6182958 -0.12254253 1.7879343 174
-1.7027029 -0.13332032 1.7855588 176
-1.7944781 -0.14502671 1.786159 176
-1.887376 -0.15721825 1.7830827 183
-1.9880301 -0.17044583 1.782181 184
-2.0952208 -0.18466166 1.7815855 181
-2.2107077 -0.20006487 1.7820379 178
-2.3203466 -0.2154403 1.7721887 174
-2.4512656 -0.2332482 1.7720665 179
-2.5977457 -0.25309765 1.7755713 174
-2.7383506 -0.27301073 1.7677053 168
-2.8947525 -0.29510021 1.7621987 169
-3.0673683 -0.31951624 1.7578208 161
-3.2627213 -0.34704843 1.7565538 159
-3.496526 -0.37952581 1.7640941 165
-3.5093617 -0.38894695 1.6577474 156
-3.4962001 -0.39547986 1.5420752 157
-2.9083462 -0.33668581 1.20111 181
-2.8984091 -0.34208366 1.1100298 183
-2.8932824 -0.34797034 1.0227813 186
-2.9017565 -0.35543835 0.941486 187
-2.9070275 -0.36252451 0.86010849 187
-2.8946548 -0.36741069 0.77514273 189
-2.8963399 -0.37400377 0.69504797 190
-2.8948748 -0.38017899 0.61513299 190
-2.8922246 -0.3861762 0.53586626 190
-2.8864636 -0.39173314 0.45694825 192
-2.8874533 -0.39816904 0.37965676 191
-2.8864043 -0.40431964 0.30255145 194
-2.8833296 -0.41017556 0.22568633 196
-2.8772538 -0.41558731 0.14907898 186
-2.8780887 -0.42196769 0.072958745 183
0.29703122 0.098689288 0.050634723 147
0.28810099 0.096198611 0.058410939 148
0.29589581 0.099698573 0.067001007 148
0.30250832 0.10280897 0.075947545 148
0.29395255 0.10040992 0.08330559 148
0.30752641 0.10611388 0.093819275 180
0.8081764 0.29228425 0.19791311 190
0.8411324 0.30654886 0.22861142 187
0.84387153 0.30964565 0.25402158 187
0.85225904 0.31490073 0.28151375 186
0.84547812 0.31444159 0.30521145 186
0.85325491 0.31953371 0.33387628 186
0.8522411 0.32129219 0.36024308 186
0.85051012 0.32278273 0.38678905 185
0.84805453 0.32399815 0.41349232 185
0.84572041 0.32526648 0.44073123 185
0.8485204 0.32857299 0.47110152 184
0.84375018 0.32890037 0.49835345 184
0.84559441 0.33187667 0.52991015 184
0.84565043 0.33416545 0.56142467 184
0.83918035 0.3338294 0.58969551 185
0.83736753 0.3353914 0.62176895 197
0.83531964 0.33687726 0.65471292 197
0.83147788 0.33764103 0.68739295 196
0.83323181 0.34075552 0.72574371 195
0.83366716 0.34336513 0.76467097 195
0.83205646 0.34515414 0.80348271 195
0.82980317 0.3467066 0.84339869 193
0.8315329 0.3500078 0.88921297 192
0.82635546 0.35038799 0.93009055 189
0.82484055 0.35239416 0.97705793 184
0.82159632 0.35369989 1.0245833 179
0.81659997 0.35428461 1.0726013 185
0.81446666 0.356197 1.1272275 181
0.81471127 0.35925853 1.1887865 178
0.8130517 0.36156473 1.251941 174
0.80835563 0.36258909 1.3149995 172
0.80565339 0.36463216 1.386168 167
0.80004823 0.36545488 1.458087 173
0.79517388 0.36674881 1.5375407 167
0.79747552 0.37161067 1.638729 161
0.78877187 0.3714484 1.7268949 158
0.77989531 0.37138817 1.8237844 225
0.72683722 0.34984162 1.8230003 221
0.67445099 0.32834882 1.8204571 210
0.62310982 0.30709887 1.8171191 212
0.57460982 0.28702077 1.8186899 213
0.52683192 0.26706621 1.8196909 214
0.47923201 0.24695377 1.8182546 213
0.43238494 0.22698529 1.8163084 214
0.38583729 0.20691715 1.8119551 213
0.34156436 0.18786789 1.8149657 213
0.29602483 0.1678407 1.807837 215
0.25240341 0.14868607 1.8082098 217
0.20904945 0.12945697 1.8073053 218
0.16599387 0.1101689 1.8051354 218
0.1238137 0.091276586 1.8096814 216
0.081611112 0.072183996 1.8130178 213
0.039250128 0.052638218 1.8071481 210
-0.0027186032 0.03327214 1.8080547 205
-0.044621877 0.013746185 1.8077525 203
-0.086835258 -0.0059258137 1.8142316 200
-0.12811574 -0.025730779 1.8035239 199
-0.16964845 -0.045654044 1.7996001 198
-0.21196978 -0.065952525 1.80241 195
-0.25445467 -0.086523622 1.8039632 195
-0.29707149 -0.10735389 1.8042476 194
-0.33826214 -0.12788394 1.7954183 195
-0.38278678 -0.1498159 1.801941 196
-0.42562971 -0.1713506 1.7983508 198
-0.47054598 -0.19390899 1.8011363 199
-0.51831865 -0.21786693 1.8110607 200
-0.56435055 -0.24138042 1.8118215 201
-0.61034745 -0.26511765 1.8101438 201
-0.65689707 -0.28932443 1.8078871 198
-0.70328724 -0.31369671 1.8031709 195
-0.75330132 -0.33989888 1.8050599 202
-0.80377102 -0.3665708 1.805187 197
-0.85808456 -0.39524618 1.8105742 193
-0.90902334 -0.4226771 1.8061154 190
-0.9644478 -0.45243919 1.8075308 186
-1.0204279 -0.48275715 1.8068447 181
-1.0809644 -0.51551437 1.8106406 177
-1.1338027 -0.5449512 1.7990196 172
-1.2003297 -0.5811975 1.8053621 168
-1.2626969 -0.6158067 1.8018885 177
-1.3302063 -0.65324426 1.8019863 174
-1.4037833 -0.6940152 1.805953 173
-1.4782637 -0.73563528 1.8066956 175
-1.5529147 -0.77774596 1.8034434 176
-1.6398402 -0.82639039 1.8093628 176
-1.715986 -0.8700968 1.7991135 184
-1.8101207 -0.92331243 1.8024681 182
-1.9046386 -0.97724319 1.8006988 180
-2.0063765 -1.0353918 1.7999315 177
-2.1148257 -1.0975602 1.7989451 179
-2.2359517 -1.1669009 1.8017299 174
-2.3590503 -1.2379431 1.7989217 168
-2.5012476 -1.3196863 1.802511 168
-2.6570234 -1.4093865 1.8067608 161
-2.8212149 -1.5044219 1.807103 161
-2.967171 -1.5906438 1.787182 166
-2.9575119 -1.5941845 1.6736095 161
-2.9567354 -1.6024125 1.567794 160
-2.9539511 -1.6095045 1.4633256 161
-2.9549603 -1.6186118 1.3627766 155
-2.9533904 -1.6262789 1.262933 158
-2.9492846 -1.6325122 1.1638786 160
-2.9502225 -1.6414918 1.0683079 161
-2.9412301 -1.6449294 0.97085214 162
-2.9433939 -1.6545424 0.87826258 162
-2.9441931 -1.6633883 0.7861796 163
-2.9419527 -1.6705121 0.69421774 164
-1.1488529 -0.660245 0.26318192 210
-1.1305053 -0.65304655 0.2250039 182
-1.1259202 -0.65364087 0.18988506 186
-1.1274326 -0.65772682 0.1557622 186
-1.2853601 -0.75246304 0.13226953 33
-2.9297757 -1.7137275 0.15548198 165
-2.9198565 -1.7163016 0.066553555 162
