# .PCD v0.7 - Point Cloud Data file format
VERSION 0.7
FIELDS x y z normal_x normal_y normal_z curvature
SIZE 4 4 4 4 4 4 4
TYPE F F F F F F F
COUNT 1 1 1 1 1 1 1
WIDTH 604
HEIGHT 1
VIEWPOINT 0 0 0 1 0 0 0
POINTS 604
DATA ascii
-1.7895944 -0.99366271 1.3671581 0.34738451 0.93719852 -0.031349879 0.0012043125
-0.73040682 -0.95813924 1.320893 -0.85149002 0.4470759 -0.2740218 0.17384106
-0.64954001 -0.9492687 1.3124398 -0.86354017 0.43787527 -0.25012723 0.1822166
-0.55491447 -0.94731778 1.3073571 -0.84598172 0.39779785 -0.35506603 0.16347286
-0.48323011 -0.92007709 1.3098855 0.91058606 -0.41111913 0.042592432 0.16325201
-2.4090703 -0.80362356 1.3435166 0.33413345 0.94144052 -0.045216676 0.0037454579
-2.3452735 -0.81873882 1.3468207 0.33270061 0.94220823 -0.039420731 0.0037540144
-2.252532 -0.84341753 1.3523806 0.32442635 0.94534224 -0.032796208 0.0031815534
-2.1534414 -0.87779814 1.3496873 0.33077082 0.94321948 -0.030458972 0.0030693195
-2.0776184 -0.89499629 1.3568109 0.34582683 0.93791342 -0.026873261 0.0023852619
-0.71530831 -0.86996055 1.3244501 0.9301002 -0.3672981 -0.0024027163 0.18051051
-0.65281361 -0.84619164 1.3157825 0.90523404 -0.384206 0.18148573 0.21879351
-0.54864681 -0.84403861 1.3101619 -0.83523548 0.48320189 -0.2624836 0.19457735
-0.4756299 -0.82753628 1.3156729 -0.8205139 0.56956911 0.048456274 0.17297998
-2.7272766 -0.70411146 1.3394754 0.34267455 0.93828261 -0.046903543 0.0098197004
-2.6433704 -0.71465749 1.3448755 0.35457835 0.93439597 -0.034327369 0.0088318
-2.5509319 -0.74342614 1.352374 0.33543667 0.94115621 -0.041318182 0.0078872778
-2.4500124 -0.7766996 1.3520235 0.31580925 0.94769311 -0.046285208 0.0042408961
-2.3754187 -0.78994137 1.3488603 0.3348209 0.94140339 -0.040678095 0.0035911454
-2.2750022 -0.79936516 1.3376412 0.32378384 0.94567794 -0.029278202 0.0031923456
-0.64247698 -0.75042307 1.3204182 -0.62772906 0.77299726 0.091822587 0.20029302
-0.54846394 -0.74169707 1.3161272 -0.71120214 0.69149154 -0.12661308 0.15393586
-0.45374379 -0.74299109 1.3330655 -0.70209116 0.71124369 -0.03464698 0.12308218
-3.0215938 -0.60901439 1.3568313 0.28975192 0.9564181 -0.036169242 0.0088329129
-2.9346206 -0.61713493 1.3496408 0.28914848 0.9567219 -0.032807261 0.010251948
-2.847383 -0.64364511 1.3525121 0.30466393 0.95158398 -0.040839568 0.011150029
-2.7501297 -0.67518932 1.3533884 0.31863734 0.94709277 -0.038542472 0.011342807
-2.671016 -0.68870753 1.3429441 0.34639755 0.93702388 -0.044665541 0.0098241186
-2.5822783 -0.69175172 1.3788798 0.3537131 0.93469197 -0.035186857 0.0090229129
-0.6296432 -0.67994535 1.3235888 0.63421005 -0.75326699 -0.17425983 0.15476596
-0.56241161 -0.68819332 1.322968 -0.67081779 0.74120086 0.024995806 0.14261195
-0.41334876 -0.66968721 1.3498853 -0.49438801 0.86868691 0.031041387 0.069585614
-0.36306819 -0.61810666 1.3513446 -0.48674977 0.87353146 0.0041799312 0.057379801
-0.24676441 -0.62276775 1.3508428 -0.25173771 0.9666267 0.047550041 0.04090967
-0.18364866 -0.62379837 1.3529589 -0.14291319 0.98814058 0.05615966 0.026020141
-0.014504596 -0.60645443 1.3600284 -0.27458149 0.95969331 0.059947308 0.03539912
0.009347328 -0.60511291 1.3452117 -0.29810706 0.95280713 0.057365809 0.03536297
-3.3287163 -0.50845659 1.3425243 0.6533547 0.75468069 -0.059872277 0.074166782
-3.2402654 -0.51450592 1.3485668 0.44223765 0.89540172 -0.051784068 0.042381823
-3.1505806 -0.54104882 1.3456581 0.30049571 0.95316625 -0.034298591 0.0062422925
-3.0467596 -0.57034296 1.3469754 0.27298293 0.96145272 -0.033001244 0.0084909098
-2.9676559 -0.58525658 1.3457534 0.29953483 0.95358485 -0.030899988 0.0097000049
-2.8810871 -0.58470625 1.3996857 0.30363435 0.95249248 -0.023752514 0.011124103
-2.786943 -0.59341025 1.3914125 0.30286315 0.9520815 -0.042599294 0.012621866
-0.34938368 -0.58962405 1.3498693 -0.44640243 0.89405018 0.037405431 0.045469519
-0.27487323 -0.58923298 1.3565675 -0.26564252 0.96331996 0.038061954 0.039274242
-0.14768597 -0.54526305 1.349483 -0.18194884 0.98093146 0.068322912 0.031439897
-0.039327838 -0.57449955 1.353102 -0.27187505 0.96058333 0.057995878 0.03582269
0.023142295 -0.53899634 1.3497964 -0.39196515 0.91933286 0.03450188 0.042219251
0.18403311 -0.51080453 1.3586057 -0.50373197 0.8635484 0.023202464 0.03804794
0.22001775 -0.50403059 1.3537787 -0.53710568 0.84314978 0.024818188 0.051716004
-3.4189415 -0.43649191 1.3493598 0.86105335 0.50670213 -0.042895753 0.089137159
-3.3503985 -0.47095323 1.3497913 0.71491796 0.69666529 -0.05958112 0.076349862
-3.2680004 -0.4869414 1.353687 0.55757433 0.82696873 -0.072342999 0.07152459
0.066791438 -0.47406557 1.3505144 -0.43352434 0.8999505 0.046321262 0.050527487
0.1533498 -0.47415993 1.3545648 -0.50372964 0.86354971 0.023202481 0.03804519
0.22531742 -0.45410365 1.3480799 -0.55224168 0.83322787 0.027576236 0.057212871
0.32933781 -0.40419731 1.3554621 -0.779948 0.62568408 -0.014158857 0.066990808
-3.4106221 -0.36894947 1.3563799 0.99515647 0.080570437 -0.056320366 0.09079913
-3.3812237 -0.33957243 1.3448735 0.996773 0.034412824 -0.072522245 0.08266259
0.1918003 -0.39918703 1.398196 -0.6349799 0.77153987 0.039073475 0.070440538
0.2523481 -0.36957502 1.3478973 -0.67188793 0.74049211 -0.015428242 0.073231816
0.3550435 -0.36195821 1.3493649 -0.81884491 0.57399261 -0.0050528524 0.068498693
0.40507373 -0.33934444 1.3403157 -0.88865852 0.45779467 0.026645493 0.066009976
-3.3555489 -0.25017324 1.3563997 0.98507208 -0.16849868 -0.035232663 0.038780618
0.29616782 -0.27002612 1.3436881 -0.89107215 0.45370778 0.011816267 0.067422628
0.33596435 -0.24102001 1.3496697 -0.8954078 0.44512331 -0.0104904 0.062108498
-3.3251407 -0.14829195 1.3454605 0.9398821 -0.34100109 -0.018438239 0.002229532
-3.2875416 -0.11915628 1.3459452 0.94157648 -0.33622012 -0.019739958 0.0022149542
0.36795491 -0.14407727 1.3510203 -0.91874695 0.39352915 0.032231152 0.045912668
0.41691113 -0.10818839 1.3445982 -0.91763604 0.39559811 0.038029734 0.042699736
-3.3068681 -0.077240825 1.3411219 0.94101775 -0.33775562 -0.020169022 0.0020686723
-3.2824841 -0.040346041 1.3475505 0.94545549 -0.32518134 -0.019260883 0.001776231
0.38642541 -0.083009847 1.3476856 -0.91593999 0.39860374 0.046571739 0.041170914
0.43573886 -0.049455356 1.3493344 -0.90948415 0.41514108 0.022281105 0.034581326
0.50714809 -0.074399099 1.3268211 -0.92208481 0.3869054 0.0079854326 0.039188065
-3.249485 0.052968509 1.3467697 0.94762176 -0.31905711 -0.014682656 0.0020157404
0.47179803 0.043075904 1.3484355 -0.96969408 0.24338718 0.02135497 0.033417434
0.50529671 0.057005569 1.3508594 -0.96853709 0.24872762 0.00839849 0.034203969
-3.219769 0.14908908 1.3461359 0.94769937 -0.31883839 -0.014418813 0.0018432934
-3.1939554 0.18066233 1.3580561 0.94531351 -0.32568759 -0.017606609 0.0014508222
0.4690733 0.15785086 1.3497685 -0.96121776 0.27202353 0.045426331 0.033666585
0.51478958 0.1020618 1.3797799 -0.96705186 0.25205275 0.035780177 0.032081421
-3.2064376 0.22426499 1.3536131 0.94542754 -0.32531911 -0.018285867 0.001326176
-3.1785882 0.2560325 1.3502622 0.94601631 -0.32363415 -0.017723352 0.0016145993
0.48411423 0.23766187 1.3493474 -0.93266433 0.35908911 0.034530073 0.034327224
0.52098888 0.27060497 1.3505347 -0.92987597 0.36304751 0.059390377 0.033944584
0.6053341 0.29665264 1.3269631 -0.94276607 0.32832533 0.058263954 0.038363613
-3.1492908 0.35218838 1.3469735 0.9441461 -0.32881695 -0.02162523 0.0014853321
0.49335626 0.30455837 1.3481003 -0.93610251 0.34920439 0.042051397 0.03685328
0.56567341 0.31661507 1.346324 -0.94528282 0.32268947 0.048081495 0.038303141
0.62606066 0.35235482 1.3512654 -0.9457922 0.32241702 0.03904273 0.038714003
-3.1174929 0.44558203 1.3543397 0.94283533 -0.33240703 -0.023816358 0.0012556037
-3.0935309 0.48330182 1.3557519 0.94027394 -0.33933917 -0.027087988 0.0010816804
0.57798964 0.47038659 1.3422154 -0.97362667 0.22812937 -0.002845115 0.040771645
0.62099105 0.42595658 1.348102 -0.97085124 0.23908083 0.01697778 0.039936848
-3.1059911 0.50801951 1.3562155 0.93844539 -0.34450734 -0.02519838 0.00094044796
-3.0751836 0.55364496 1.3481637 0.94530147 -0.32528871 -0.024338212 0.0014411382
0.58272111 0.53701973 1.3503106 -0.99819946 0.058561131 0.01297897 0.06323576
0.62723452 0.57596517 1.3522062 -0.99962413 -0.012612449 0.024341416 0.0656434
-3.0374651 0.65298653 1.3501147 0.9448185 -0.32690939 -0.021171784 0.001887595
0.58274311 0.6367327 1.3411236 -0.98202002 -0.1816808 0.051271155 0.077939391
0.65754437 0.65146464 1.3515598 -0.98467112 -0.16466652 0.057513013 0.086139977
-3.0133293 0.73881984 1.3502209 0.9374491 -0.34756291 -0.019729476 0.002301248
-2.9920321 0.76845431 1.3544986 0.93637121 -0.35059068 -0.01717796 0.0021954598
0.49769133 0.79204029 1.3296437 -0.95439327 -0.29700601 0.030344995 0.087140836
0.53833103 0.77629417 1.3511403 -0.95956171 -0.25543073 0.11830647 0.085254706
0.65308988 0.73920345 1.3512936 -0.96311736 -0.25686634 0.080154702 0.093530633
-3.0038836 0.82579786 1.3029774 0.93590188 -0.35182288 -0.01755943 0.002194088
-2.9649489 0.852552 1.3506182 0.93472302 -0.35498774 -0.016630728 0.0021401672
0.49293971 0.83172244 1.3435135 -0.9563306 -0.28371942 0.070250385 0.088952385
0.52614927 0.847642 1.3398808 -0.93866664 -0.33726236 0.071825624 0.093641244
0.62256694 0.89180934 1.3387547 -0.92512923 -0.3709051 0.081026301 0.092939004
-2.9256914 0.94863087 1.3495212 0.93404442 -0.35693946 -0.01245537 0.002039178
-2.8966827 0.9881295 1.3775589 0.93176317 -0.36290461 -0.010842247 0.0019205462
0.47939673 0.98139995 1.3462501 -0.95419353 -0.28483498 0.091562472 0.083811678
0.5268237 0.94207591 1.3511643 -0.94805682 -0.31022784 0.070334524 0.085641123
0.62697941 0.91439646 1.3499337 -0.9274053 -0.36478347 0.082779959 0.093628146
-2.908396 1.0255592 1.3382882 0.93200558 -0.36213496 -0.014957914 0.0015825365
-2.8833582 1.0626701 1.3595723 0.93490076 -0.35480759 -0.0084969252 0.0018236684
0.45767483 1.0437373 1.349357 -0.95519841 -0.28526527 0.078865901 0.071381658
0.55973357 1.0172912 1.3553385 -0.95518863 -0.28589138 0.076686814 0.086802736
-2.8596199 1.1437578 1.3546377 0.94226271 -0.33487377 -0.0007534363 0.0013839509
0.37148845 1.1837556 1.3476652 -0.87981099 -0.47530827 -0.0038328683 0.073474318
0.44906774 1.1496664 1.3502972 -0.9217242 -0.38751006 0.01613475 0.078845836
0.50498635 1.1883261 1.3137476 -0.92664891 -0.3745853 0.031740375 0.078297511
-2.8237472 1.2463286 1.34902 0.93846095 -0.34392628 0.031712428 0.0054222601
-2.7941895 1.2809255 1.3709314 0.93825513 -0.3452298 0.022220694 0.00424024
0.28090236 1.2978555 1.3306115 -0.83681405 -0.54748714 -0.00038267666 0.064762905
0.3766267 1.2895379 1.3419347 -0.81492633 -0.57865483 -0.032460984 0.064713232
0.44957098 1.2479234 1.3474733 -0.82396179 -0.5663904 -0.016997697 0.06968984
0.50450134 1.2247235 1.3476843 -0.87159908 -0.48976704 0.021056399 0.076829679
-2.8070362 1.3302581 1.332026 0.93704087 -0.34434506 0.058145292 0.0072366199
-2.7807317 1.3568145 1.3591669 0.93907017 -0.3400127 0.050383195 0.0070142536
0.2889165 1.3532617 1.3495373 -0.89723694 -0.44144407 0.0096417274 0.072769433
0.33272257 1.3247728 1.3510097 -0.84440434 -0.53570533 -0.0010232331 0.0672554
0.41065162 1.3122152 1.3217491 -0.82345212 -0.56695914 -0.021996681 0.070640132
-2.7506049 1.4505775 1.3537418 0.94486213 -0.32550874 0.035771858 0.0070006386
0.29154024 1.4108001 1.3484018 -0.99688578 -0.07346011 -0.028676705 0.080872357
0.32358086 1.453215 1.3501 -0.99824971 0.053475026 -0.025256628 0.063129351
-2.7182941 1.5452733 1.3489563 0.94576454 -0.32357761 0.028759005 0.0070187328
-2.6916149 1.5790503 1.3699079 0.93029571 -0.36606357 0.023396663 0.0077947807
0.35478088 1.5485243 1.3513587 -0.97664434 0.21346486 -0.024469333 0.03474756
-2.7053263 1.614952 1.3371036 0.92936808 -0.36915389 -0.00068901305 0.0083248299
-2.6760468 1.6543086 1.3537632 0.88873041 -0.45829123 0.011282436 0.033473194
-2.2107785 1.6928577 1.3271668 -0.098623574 -0.99203432 0.078366399 0.044853505
-2.1380806 1.6971107 1.3225381 0.25359783 -0.96234673 0.097861849 0.098131813
0.38401014 1.6385556 1.3439044 0.93716335 -0.34828487 0.020553121 0.0075878738
0.41069728 1.6673985 1.3494591 0.94222659 -0.33405915 0.024769604 0.0076024337
-2.6404929 1.7500826 1.3497905 0.83070368 -0.55634749 0.020220103 0.079509415
-2.5125272 1.7951112 1.3713982 0.11731641 -0.99162835 0.05394515 0.1231947
-2.430413 1.7878703 1.33512 -0.15895453 -0.98725784 0.007439693 0.069266669
-2.3502035 1.7814828 1.3352448 -0.22846265 -0.97223347 0.050663613 0.030485334
-2.2405882 1.7576865 1.3512329 -0.035847548 -0.98308027 0.17963338 0.074871138
-2.1360686 1.7462548 1.3483509 0.38894126 -0.89102548 0.23409039 0.10898641
-2.0855896 1.776659 1.3510288 0.64062953 -0.72858357 0.24240419 0.093625829
0.39375114 1.7189752 1.3533891 0.94615972 -0.32201761 0.032960061 0.0072262078
0.42917675 1.7501659 1.3485039 0.95342714 -0.3005726 0.025154633 0.007747693
-2.6103551 1.8240871 1.3466477 0.64355463 -0.76385123 0.048670873 0.1354315
-2.5815222 1.8564827 1.3482753 0.48524085 -0.87320507 0.045324512 0.14429392
-2.4429786 1.8141729 1.3432275 -0.22321418 -0.97465789 0.014742141 0.053498298
-2.3809144 1.8079349 1.3574127 -0.23185305 -0.97230107 0.029575543 0.043603297
-2.0569081 1.8470458 1.3512594 0.76708144 -0.59356833 0.24343961 0.066262603
0.45629513 1.8439611 1.3508545 0.95512968 -0.29496098 0.026930945 0.0075429147
-2.0213866 1.9409581 1.3536085 0.87671828 -0.43022755 0.21510279 0.034772906
-1.9920348 1.9807971 1.3279607 0.92263091 -0.3465035 0.16937388 0.010632196
0.48370951 1.9391221 1.3513504 -0.98368597 0.17703103 -0.031968229 0.018849291
0.51039904 1.9697113 1.3489531 -0.98900533 0.14697073 -0.016373659 0.022750575
-2.0069518 2.0120001 1.3735579 0.89036065 -0.30923799 0.33411059 0.020290595
-1.9777967 2.0523226 1.3440543 0.92370731 -0.28918242 0.25127372 0.015298168
-0.33340019 2.0862041 1.3548039 -0.005476818 -0.99866986 -0.051268719 0.056069806
-0.25107694 2.0608573 1.3485411 0.32092011 -0.94592243 -0.047338292 0.082151517
-0.17666809 2.0558138 1.3476822 0.45030266 -0.89255321 -0.024005119 0.093092389
0.49424329 2.0106108 1.3788195 -0.99939424 0.034078214 -0.0070528127 0.032225806
0.52614886 2.0529439 1.3508703 -0.99568206 -0.092412293 0.0087847468 0.056113761
-1.9489306 2.1455972 1.3471705 0.92628807 -0.27847287 0.25385684 0.017479295
-0.62717056 2.1888878 1.3525767 -0.32947928 -0.94327366 -0.040966455 0.0013952121
-0.55057174 2.1673768 1.3492221 -0.3084887 -0.95021719 -0.043841306 0.0022324107
-0.44701836 2.1332774 1.3491217 -0.29123205 -0.95525467 -0.051695008 0.00792858
-0.37361294 2.1103902 1.3481587 -0.12739423 -0.99144542 -0.028401747 0.044317413
-0.20520478 2.1839972 1.3159906 0.63806224 -0.76252836 -0.10689699 0.10645819
-0.13103238 2.1459846 1.3415812 0.675143 -0.73633498 -0.044639681 0.088812679
-0.083816111 2.1501236 1.3253807 0.74928612 -0.65400279 -0.10416613 0.073605768
0.46785504 2.1918089 1.3504307 -0.94371897 -0.31708479 -0.094083875 0.16650556
0.53303707 2.1548259 1.3517354 -0.99819219 -0.014006005 -0.058449294 0.1065631
-1.9209688 2.2475493 1.3486112 0.93621713 -0.23312853 0.26296106 0.016266076
-1.8913735 2.2865217 1.3335583 0.95158815 -0.20356318 0.23030844 0.014958203
-0.93010336 2.290648 1.35084 -0.32578701 -0.94445539 -0.043205604 0.0018493804
-0.85334861 2.2686725 1.350881 -0.30816856 -0.95038885 -0.042346377 0.0020459981
-0.75153083 2.2354579 1.3494927 -0.31824985 -0.94698083 -0.044093896 0.0016690736
-0.66976279 2.21088 1.3495568 -0.32124773 -0.94608498 -0.041510671 0.00145415
-0.59790999 2.2022316 1.3295058 -0.32602209 -0.94444239 -0.041692048 0.0012798789
-0.11533687 2.2546325 1.3502091 0.80157894 -0.59462881 -0.062352214 0.087740965
-0.048929423 2.2652304 1.3545536 0.59826803 -0.79853779 -0.066428237 0.14128913
0.074975751 2.2919395 1.3440862 0.090980791 -0.99584025 -0.0049698157 0.10017242
0.17754497 2.2919095 1.3525958 -0.21822192 -0.97547156 -0.028887289 0.040468562
0.26010802 2.2773571 1.3518441 -0.28496423 -0.95853812 0.00038633417 0.015730282
0.34978384 2.2513089 1.3475988 -0.30095646 -0.95169669 -0.060816113 0.069933996
0.4461222 2.2212703 1.3470517 -0.56682146 -0.77108628 -0.29006785 0.19897269
0.51954168 2.2042396 1.3417569 -0.99173439 0.06576518 -0.11017188 0.14476873
-1.9078459 2.3345954 1.3471973 0.94878906 -0.16709794 0.2680999 0.030126333
-1.8916709 2.3535326 1.3458401 0.947366 -0.2455717 0.20540757 0.065923534
-1.3378037 2.3889821 1.3705355 -0.32580012 -0.94417423 -0.04888105 0.0046478338
-1.2275122 2.388397 1.3510568 -0.33659667 -0.94063359 -0.04371649 0.0035265731
-1.1534334 2.3679204 1.3517731 -0.2998428 -0.95272613 -0.049063276 0.0029340698
-1.0503812 2.3347933 1.3492317 -0.30829859 -0.95045799 -0.039768122 0.0023024299
-0.96782452 2.3107448 1.3488296 -0.3239173 -0.94497371 -0.045851324 0.0019408645
-0.89549541 2.3035734 1.3342952 -0.31953621 -0.94652516 -0.044571608 0.0019587001
-0.11268644 2.3164876 1.3397249 0.74508291 -0.66517913 -0.048868619 0.1095109
-0.051183246 2.3711729 1.3435723 0.38461655 -0.92230034 0.037845273 0.13875213
0.05722446 2.3477302 1.3442682 -0.048141971 -0.99858582 0.02255661 0.088598929
0.14675753 2.3208296 1.3508795 -0.18468949 -0.98260832 -0.019253084 0.045408595
0.22008701 2.3074121 1.3509578 -0.26501852 -0.96417087 -0.011819801 0.032773536
0.59666413 2.3757732 1.3174746 0.87441415 -0.4840062 -0.03373415 0.041757379
0.63194716 2.3975277 1.3097086 0.90345174 -0.42855406 -0.01079322 0.019171972
-1.9139855 2.439292 1.3522959 0.91938096 -0.21763845 0.32767686 0.14253625
-1.8866923 2.4159293 1.3418008 0.90557468 -0.23268481 0.3546719 0.15258689
-1.5270052 2.4894383 1.3489965 -0.38581851 -0.92122269 -0.049929157 0.013915798
-1.4490967 2.4678142 1.3521518 -0.32604477 -0.94452608 -0.03956325 0.005112743
-1.3500179 2.432507 1.3524998 -0.32280624 -0.9455021 -0.042682581 0.0046154479
-1.2657897 2.410825 1.3487062 -0.33616909 -0.94084007 -0.042548444 0.0039442335
-1.1881609 2.4010172 1.372408 -0.31424055 -0.94857681 -0.038142167 0.0035192363
-0.065535463 2.4056549 1.3650707 0.35380271 -0.93489873 0.028071595 0.13117222
0.64046723 2.4736834 1.3504575 0.91471982 -0.40408847 0.00016287934 0.012806249
-1.9372659 2.5540097 1.3624649 0.89597219 -0.28864381 0.33751822 0.16786547
-1.8768469 2.5951052 1.3246102 0.8965981 -0.42355755 0.12927017 0.21122263
-1.7180202 2.5643735 1.3519225 -0.32074964 -0.9221741 0.21613578 0.18928242
-1.6435361 2.5312178 1.3506643 -0.36254245 -0.93128604 -0.035626739 0.11137579
-1.5691807 2.5110915 1.3499844 -0.47179735 -0.8793177 -0.064865783 0.023178969
-1.4843233 2.5062909 1.3511568 -0.36900714 -0.92782909 -0.054468714 0.011909308
0.68007845 2.5587132 1.3430283 0.94431949 -0.32428861 -0.055655863 0.0077571194
0.70318872 2.5919931 1.3438064 0.93586242 -0.34943357 -0.045361668 0.0098799923
-2.0378425 2.6463366 1.3267521 0.95558661 0.067144215 0.28695968 0.14992996
-1.9461169 2.6548886 1.3460972 0.95625883 -0.16925198 0.23858517 0.19702761
-1.8942357 2.697803 1.3281144 0.99950415 -0.0011677325 0.031464919 0.24606457
-1.7453589 2.648103 1.3510972 -0.69308889 -0.7073828 0.13869862 0.17368729
-1.6998433 2.6385932 1.3268127 -0.59981036 -0.79384351 0.10019968 0.14644119
0.68382436 2.6246712 1.3501418 0.93396425 -0.35432816 -0.04650021 0.0094842883
0.71125931 2.6496937 1.3485512 0.9281143 -0.36951259 -0.045436136 0.010784061
-1.7780409 2.7100062 1.3380454 0.95130134 0.25451198 -0.17392355 0.18565999
0.73026121 2.7511814 1.3624613 0.93091661 -0.36277258 -0.04231159 0.0097620059
-2.0365629 2.8994608 1.3315077 -0.42512956 -0.88792038 -0.17567651 0.19229771
-1.903262 2.8739202 1.3288629 -0.83674574 -0.54659826 -0.032969754 0.12151223
-1.8680122 2.8386388 1.3229027 0.9272629 0.3653256 0.081979603 0.1660742
-1.7873486 2.8670421 1.3644891 0.87952358 0.47573298 0.010794578 0.075342059
0.7887485 2.8366895 1.360647 0.92863029 -0.36735317 -0.051936544 0.0098041613
0.84310091 2.8636317 1.3708184 0.92360288 -0.3783291 -0.061845101 0.008891793
-2.2032881 2.9686506 1.3494955 -0.12152433 -0.98459679 -0.12570173 0.11867723
-2.1606538 2.9995749 1.3731062 -0.089912064 -0.9922114 -0.086211056 0.086881764
-2.0155692 2.9443603 1.3194983 -0.33221537 -0.94296366 -0.021270739 0.080397956
-1.9381744 2.9828618 1.354275 -0.36541322 -0.93067241 0.017947352 0.074678943
-1.8669735 2.9663329 1.3426963 -0.70593828 -0.70823008 0.0078348862 0.09007629
-1.7939153 2.9501915 1.3244256 -0.77421421 -0.63099909 -0.049320556 0.087811343
-2.2137065 3.0438354 1.3641256 -0.026337985 -0.99506563 -0.095659144 0.078507818
-2.1724396 3.0656281 1.3484751 -0.038587008 -0.99558681 -0.085544355 0.080955602
-2.0452783 3.0369864 1.3490515 -0.24646157 -0.9665674 -0.070739768 0.072070226
-1.9718639 3.0153115 1.340701 -0.30125564 -0.9532724 -0.022731826 0.071847081
-1.8817079 3.0027015 1.3150148 -0.49904037 -0.86642766 0.016177842 0.072629675
-2.1812682 3.1009629 1.3121387 -0.056282829 -0.99392956 -0.09453167 0.076374449
1.7092496 3.7862887 1.3682886 -0.98945403 0.14397854 0.015843328 0.018536031
1.7945255 3.9736221 1.3842632 -0.99478465 0.097240999 0.030783739 0.028367521
1.8385844 4.0800858 1.3227868 -0.99879086 0.037896018 0.03131834 0.036836348
1.7466977 4.1780238 1.3951281 -0.99532109 -0.086553328 0.042947635 0.045549065
1.7694073 4.2720337 1.3887372 -0.97531044 -0.21803391 0.035081096 0.041409977
-1.0242985 -1.3061986 1.4455043 0.18862073 0.98056346 0.054014139 0.050645247
-0.94430995 -1.3266157 1.451772 0.14249691 0.98645908 0.08119791 0.088542558
-0.86417502 -1.349813 1.4518281 0.15347493 0.98657614 0.055794518 0.10508241
-0.79445338 -1.3679717 1.4847536 0.16573134 0.98340023 0.073872015 0.095696546
-1.2364038 -1.2176092 1.4418229 0.36626059 0.93051064 0.0017814072 0.0031424244
-1.1505682 -1.246419 1.44752 0.34960032 0.93663293 -0.022325166 0.0061864234
-1.0543764 -1.2778776 1.4493394 0.2240552 0.97191846 0.071928456 0.033889659
-0.97367722 -1.288852 1.4530153 0.07811556 0.99188238 0.10033539 0.061133366
-0.82438773 -1.2729857 1.4414635 -0.04842424 0.97908866 0.19758618 0.17473045
-0.77522588 -1.2733235 1.4598527 -0.62576115 0.75438011 0.19832736 0.20426096
-1.5227083 -1.1134149 1.4490327 0.36176294 0.93202072 -0.021564046 0.0016913046
-1.4447396 -1.1349845 1.4521384 0.36299136 0.93168151 -0.014379367 0.0019345196
-1.3481898 -1.1683631 1.4512551 0.37515455 0.92693323 -0.0073378542 0.0025385611
-1.277671 -1.1897426 1.4571325 0.37521905 0.92683709 -0.013551674 0.0056274561
-0.77591854 -1.1511531 1.4516822 0.7380684 -0.60550189 -0.29769546 0.15803391
-1.8176627 -1.006548 1.4458187 0.33886132 0.94047683 -0.026006339 0.0016681858
-1.7466302 -1.023916 1.4490318 0.33673131 0.94113088 -0.029744014 0.001943463
-1.6491598 -1.056506 1.4491594 0.34208262 0.93937677 -0.023470845 0.0023479571
-1.566731 -1.0840424 1.4525784 0.36087683 0.93233442 -0.022812709 0.0023582214
-1.4898552 -1.0953965 1.4447042 0.35707539 0.93393737 -0.016064255 0.0018851047
-0.73090273 -1.0606158 1.4376987 0.87654608 -0.35727564 -0.32252312 0.11648259
-0.69415164 -1.0341687 1.4542516 0.89301711 -0.30692554 -0.32911566 0.12581186
-2.1134701 -0.90416992 1.4475821 0.34332576 0.93908447 -0.015743433 0.002614554
-2.0443599 -0.91653305 1.4526324 0.34795451 0.93737841 -0.015792547 0.0025584463
-1.9495233 -0.9488219 1.4480846 0.33003077 0.94379377 -0.01824999 0.0012826455
-1.8546735 -0.98009318 1.4525166 0.33274764 0.94268674 -0.024914619 0.0019240561
-1.7836245 -0.99270129 1.4705606 0.33952224 0.94033647 -0.022179786 0.0018946064
-0.71080542 -0.94797838 1.4397979 0.86622292 -0.39651513 -0.30402893 0.14130959
-0.67631286 -0.93236953 1.4439793 0.86568701 -0.41524088 -0.27957287 0.14895687
-0.51175624 -0.93611431 1.4832039 0.85250247 -0.48497924 -0.195025 0.10398928
-2.4094868 -0.80382633 1.4449512 0.33334914 0.9415198 -0.049181581 0.0045968685
-2.3445077 -0.81626207 1.4477668 0.34235352 0.9389503 -0.034151081 0.004405227
-2.2558646 -0.84284079 1.4536787 0.33124056 0.94308823 -0.029398935 0.0036935238
-2.1563802 -0.87454224 1.4502524 0.34114757 0.93962973 -0.026728379 0.0035804873
-2.0742736 -0.89096826 1.4448029 0.34759495 0.93753123 -0.014591828 0.0025053171
-0.65366739 -0.85622746 1.4302258 0.82589746 -0.47439152 -0.30470663 0.17381193
-0.57664448 -0.8434568 1.457779 0.77081752 -0.53882283 -0.33986801 0.14279191
-0.46455196 -0.83139265 1.4672239 0.80367422 -0.5441072 -0.2409464 0.11365709
-2.7284703 -0.70183265 1.4620707 0.33537775 0.94183606 -0.02160199 0.011441915
-2.6345944 -0.71519637 1.4469695 0.35955572 0.93251783 -0.033619929 0.009862097
-2.5454371 -0.74214625 1.4502141 0.32241756 0.94581145 -0.03856929 0.0068646567
-2.4547853 -0.77215135 1.4521497 0.30844679 0.95039964 -0.0400143 0.0054561957
-2.3708906 -0.79364485 1.4510205 0.34529793 0.93763363 -0.040156618 0.004765253
-2.2843144 -0.79567486 1.4479076 0.32699859 0.94460595 -0.028134877 0.0036432622
-0.61165148 -0.77615201 1.4288507 0.75744611 -0.60034359 -0.25663778 0.14677882
-0.56715626 -0.75291014 1.4156585 0.74260551 -0.63520283 -0.21226029 0.1331749
-0.43497714 -0.74995124 1.4496516 0.72525823 -0.66618192 -0.17378782 0.082123965
-3.0188813 -0.60482091 1.4723306 0.29704529 0.95463574 -0.020851269 0.0088781789
-2.9404128 -0.61527735 1.4510769 0.30817497 0.95128447 -0.0092755202 0.011052329
-2.8502624 -0.6378538 1.4497434 0.29622111 0.95501423 -0.014170056 0.012584361
-2.7560155 -0.67097723 1.4527092 0.30493781 0.95207334 -0.023861062 0.013046131
-2.6677999 -0.69071221 1.4487761 0.35243025 0.93527353 -0.032502271 0.010862977
-2.5822265 -0.69118911 1.481594 0.35351384 0.93514746 -0.022959171 0.0093101589
-0.41300035 -0.67145461 1.4560401 -0.61507875 0.78591794 0.063333221 0.072539113
-0.36359191 -0.6206134 1.4487356 -0.49174196 0.87053537 0.018921599 0.047532618
-0.24834451 -0.62161285 1.448332 -0.21258298 0.97709942 0.0092310263 0.037665557
-0.17752455 -0.62038034 1.450231 -0.1290175 0.99121743 0.029024117 0.021498693
-0.025253166 -0.60479349 1.4481982 -0.27251938 0.96170121 0.029394286 0.033648219
0.0020338118 -0.60464895 1.4781702 -0.31452456 0.94824702 0.043610252 0.030263413
-3.3443339 -0.50735784 1.4626656 0.64381605 0.76517242 0.0034672329 0.069693439
-3.2372456 -0.51444119 1.4485382 0.4450016 0.89484423 -0.035033949 0.042735409
-3.149719 -0.5386526 1.447638 0.30441669 0.95224661 -0.023597082 0.0069705229
-3.0492609 -0.56577742 1.4510374 0.28347516 0.95861924 -0.026287761 0.0087445695
-2.9688778 -0.58672816 1.4485642 0.29986224 0.95379984 -0.018670138 0.011027622
-2.7964776 -0.58852369 1.4886197 0.29728222 0.95455027 -0.021381976 0.013519613
-0.34930548 -0.5891602 1.4543384 -0.47205058 0.88129491 -0.022079716 0.043210723
-0.27626741 -0.59305871 1.4496155 -0.26592764 0.96388566 -0.01438394 0.039335776
-0.14430289 -0.5461787 1.4514459 -0.16434579 0.9851827 0.049046259 0.029263925
-0.047065631 -0.57510525 1.4503965 -0.27679199 0.96045309 0.030266304 0.033321057
0.024824139 -0.54073161 1.450744 -0.36239764 0.93085629 0.046631385 0.038940102
0.18204577 -0.50802892 1.4625477 -0.51064199 0.85952967 0.021297628 0.035040155
0.21117355 -0.50453073 1.4541842 -0.55464107 0.83175439 0.023620954 0.046451326
-3.417253 -0.43768325 1.4517099 0.813784 0.58079273 -0.020868625 0.09594921
-3.3564043 -0.46270812 1.4479711 0.7269538 0.68590021 -0.032848451 0.081169933
-3.2659934 -0.48747662 1.4417771 0.55981201 0.82754612 -0.042166404 0.071770564
-3.1976681 -0.49171656 1.4407504 0.40254939 0.91482604 -0.03236274 0.02766178
0.064087167 -0.47559619 1.4461855 -0.44750914 0.89393717 0.024733702 0.044403084
0.15229991 -0.47381741 1.4550483 -0.53241765 0.84600937 0.028276769 0.040943909
0.22650726 -0.45427933 1.4504365 -0.60296148 0.79728699 0.027766297 0.056868214
0.32595143 -0.4040536 1.4570384 -0.77794486 0.62830353 0.0060389363 0.062601551
-3.409694 -0.36172459 1.4348065 0.99124914 0.12023977 -0.054475114 0.094371289
-3.3799047 -0.33695996 1.4523772 0.9978894 0.050225481 -0.041159783 0.090199009
0.197653 -0.39757642 1.420753 -0.62233144 0.7826218 0.014377653 0.060972653
0.25534999 -0.37352598 1.4492279 -0.67466497 0.73794287 0.016354328 0.060033318
0.34533554 -0.36337557 1.4499083 -0.81599832 0.57634258 0.044452135 0.059920222
0.41733712 -0.32247829 1.4579083 -0.89033806 0.45351899 0.040231608 0.053445816
-3.3548944 -0.25025406 1.445093 0.99258119 -0.12128536 -0.0085087344 0.05587469
0.29557732 -0.28162059 1.4594642 -0.88518316 0.45701358 0.087116957 0.050738692
0.34849244 -0.24551408 1.4516168 -0.90425599 0.42237571 0.062608287 0.051868215
0.4007273 -0.23888104 1.4529752 -0.89840084 0.43430871 0.065207161 0.054643035
-3.3242066 -0.15352754 1.4450786 0.94825852 -0.31686068 -0.020123169 0.0034398206
-3.2902181 -0.12801351 1.4597901 0.942994 -0.33228302 -0.018717464 0.0017892944
0.37182745 -0.14495195 1.4488916 -0.90393233 0.42211556 0.068737045 0.038462654
0.41089907 -0.11449432 1.4684443 -0.90719175 0.41652811 0.059224389 0.036932174
0.50331211 -0.10152874 1.4327888 -0.93175679 0.35927144 0.052471619 0.036393773
-3.3079076 -0.079041533 1.4406605 0.94473487 -0.32738218 -0.017231466 0.0017157523
-3.2813923 -0.044896703 1.4438356 0.94716686 -0.3205556 -0.010911522 0.0017611876
0.38897422 -0.088538162 1.4331757 -0.91517961 0.3995831 0.052721415 0.039745703
0.43899345 -0.050498713 1.4489874 -0.93181241 0.36125287 0.034958139 0.032215122
0.5093143 -0.041938875 1.4616786 -0.93988538 0.33951533 0.036670811 0.028578976
-3.2493248 0.048388034 1.4489964 0.94630861 -0.32302862 -0.012345631 0.0019384274
0.47426257 0.043762434 1.447919 -0.96523845 0.25559801 0.054629777 0.029394215
0.5066334 0.049921535 1.4508313 -0.95762092 0.28487691 0.042513371 0.030810898
-3.2189951 0.14543891 1.4473553 0.94664794 -0.32166815 -0.019677829 0.0017611759
-3.1932988 0.17818205 1.4502364 0.9424755 -0.33359945 -0.021247158 0.0011607116
0.47356653 0.14931117 1.4452702 -0.9546991 0.28322178 0.091296151 0.030538028
0.51121515 0.17415175 1.4732561 -0.94825965 0.30232683 0.096963972 0.024531502
-3.2051036 0.22143789 1.4583455 0.94363117 -0.32993561 -0.026509041 0.0014557146
-3.1769462 0.25081527 1.4525928 0.94388521 -0.32897189 -0.029295534 0.0016213504
0.48888391 0.23882866 1.4344391 -0.94012725 0.33786058 0.044843342 0.029474529
0.52143091 0.26217866 1.4562414 -0.94160777 0.33157754 0.058576107 0.030942969
0.61272782 0.29683906 1.4649764 -0.94936424 0.31152442 0.040744986 0.032988209
-3.1476626 0.34594724 1.4449427 0.94467366 -0.32691023 -0.026858777 0.0017985626
0.56987184 0.32954064 1.447026 -0.94976884 0.30861709 0.051909346 0.033377603
0.61964267 0.35515299 1.4483615 -0.95270789 0.30030444 0.046529151 0.03478219
-3.1164651 0.43610585 1.4456449 0.94129395 -0.33633557 -0.029050792 0.0018996301
-3.0908844 0.47546622 1.4563318 0.94128865 -0.33623698 -0.030337896 0.001510615
0.5792222 0.47139075 1.4441632 -0.97105145 0.22867128 0.069054037 0.029170131
0.62545651 0.42467681 1.4483887 -0.97284234 0.22300191 0.06203305 0.031349011
-3.1035352 0.51617086 1.4437282 0.94388115 -0.32898882 -0.029236913 0.0015685253
-3.0715148 0.55151826 1.4487282 0.94630462 -0.3223463 -0.024504375 0.0020082179
0.5836935 0.53079796 1.4466612 -0.99611354 0.071040154 0.052068312 0.045217671
0.6297909 0.57334679 1.4524316 -0.99336958 0.07187517 0.089726716 0.049407437
-3.0331361 0.65808398 1.4481181 0.94352269 -0.33038253 -0.024744315 0.0020650311
0.59171873 0.64149886 1.4204339 -0.98106557 -0.13101144 0.14264037 0.07018967
0.65797609 0.65107381 1.4504162 -0.9767912 -0.1145684 0.1809779 0.07118731
-3.0136783 0.7330364 1.4500995 0.93744457 -0.34703895 -0.027598247 0.0024343873
-2.9906688 0.76562697 1.4523154 0.93900388 -0.34275728 -0.028091509 0.0022641595
0.49957019 0.78812087 1.4048983 -0.9391095 -0.3069708 0.15440965 0.07736472
0.55853885 0.77025819 1.4475703 -0.94770223 -0.27429456 0.16316548 0.082037441
0.65641069 0.73679924 1.4459425 -0.95238066 -0.21952446 0.21161355 0.076030582
0.70520878 0.71959519 1.4378808 -0.98199499 -0.14336844 0.12300977 0.079559028
-3.0098979 0.81651103 1.4665794 0.9378233 -0.34620631 -0.025072746 0.0022962878
-2.9672198 0.85152251 1.4474478 0.93664742 -0.349886 -0.016474903 0.0021292933
0.49818221 0.84618002 1.4115454 -0.93506819 -0.33005178 0.12927997 0.084162563
0.55663294 0.8560034 1.4466699 -0.91988158 -0.34173211 0.19244999 0.082467504
0.61772734 0.85415417 1.4650571 -0.92009544 -0.35514158 0.1652239 0.080746897
-2.9287765 0.94958079 1.4554747 0.93525469 -0.3537237 -0.013348805 0.0020061964
-2.89306 0.98193276 1.4253011 0.93300462 -0.35976121 -0.0086277751 0.0020392316
0.48360154 0.97955269 1.4410405 -0.95071483 -0.30314216 0.065162323 0.078266121
0.52801263 0.940988 1.4490675 -0.94666225 -0.30338252 0.1085807 0.076345466
0.6237244 0.91191107 1.4448397 -0.9077729 -0.39514774 0.14073636 0.085284173
-2.9104512 1.0266856 1.4646316 0.93602437 -0.35191038 -0.0041908897 0.0020465353
-2.8817194 1.0634149 1.4453338 0.9355197 -0.35326284 -0.0028732657 0.0021850273
0.46788505 1.0458273 1.4499658 -0.93792397 -0.34402618 0.044097956 0.065738298
0.53711563 1.0395796 1.4593798 -0.92597717 -0.37162912 0.066768169 0.067274012
0.60132831 1.0050275 1.4130622 -0.95711714 -0.27778852 0.082221366 0.079780601
-2.8566613 1.1463937 1.4477305 0.94397146 -0.33002418 0.0014046208 0.0013504168
0.37411875 1.135272 1.4520696 -0.90202618 -0.43001375 0.037905656 0.063581675
0.44885266 1.1489266 1.4505733 -0.91371393 -0.40591988 -0.018865693 0.063656524
0.51215827 1.1764742 1.4215831 -0.91844916 -0.3940953 0.033764057 0.062357578
-2.8231616 1.2482834 1.4515097 0.94401324 -0.3298564 0.0058108065 0.0014044686
-2.7955642 1.2775966 1.41844 0.94188529 -0.33585769 0.0071861823 0.001451512
0.36907819 1.2887856 1.4465994 -0.78128386 -0.62364435 -0.02575119 0.056009486
0.44541025 1.2479777 1.4478832 -0.82438296 -0.56421459 -0.045328163 0.061079882
0.50596607 1.2220476 1.4575647 -0.86785996 -0.49213955 -0.0679539 0.059166905
-2.809509 1.3284436 1.4711148 0.94353908 -0.33116493 0.0079849251 0.001201487
-2.7790058 1.3617339 1.4446706 0.94219124 -0.33491167 0.010474494 0.0013289275
0.28620958 1.3537973 1.4492843 -0.90154219 -0.43269113 2.4754423e-05 0.069843046
0.326141 1.3232971 1.4477466 -0.8725161 -0.48833057 -0.01577363 0.067985676
0.40865111 1.3037335 1.4794415 -0.83804494 -0.54397058 -0.042150814 0.063872218
-2.747139 1.4527904 1.448769 0.94326478 -0.33177933 0.013188692 0.0015563933
0.29403853 1.4190286 1.4521917 -0.99847621 -0.044477195 -0.032666575 0.070777133
0.32112738 1.4495734 1.4527533 -0.99721748 0.064139806 -0.037993368 0.056807794
-2.7189846 1.5440336 1.4588475 0.93973124 -0.3418003 0.0088218814 0.0015530454
-2.6904805 1.5767602 1.4242246 0.92636645 -0.37654603 0.0076341638 0.0055871811
0.35357085 1.5487094 1.4510301 -0.97554028 0.21705729 -0.034747005 0.031415816
-2.7073889 1.6128049 1.4860369 0.92666256 -0.37531349 0.02088581 0.0052380045
-2.6751671 1.6535498 1.4491743 0.88867694 -0.45478201 0.058537509 0.031021865
-2.1428199 1.6953386 1.4116148 0.27540302 -0.91579968 0.29234263 0.10052418
0.38402665 1.6424228 1.4479288 0.93921143 -0.34137756 0.036650877 0.006794876
0.41043463 1.6767319 1.4455471 0.94384456 -0.32803696 0.03935957 0.0066901995
-2.6391671 1.7477579 1.4521297 0.83639824 -0.52980918 0.1404995 0.067583397
-2.597667 1.7960275 1.4169954 0.71251136 -0.69082719 0.12282287 0.11789839
-2.3229218 1.7872463 1.414023 -0.13599154 -0.94930005 0.28343561 0.04491489
-2.2357924 1.7718844 1.4338303 0.024404569 -0.93535441 0.35286883 0.07703191
-2.1327164 1.7635505 1.4389663 0.54235756 -0.74872839 0.38112217 0.086463563
-2.0879722 1.7782695 1.417454 0.6286394 -0.69599628 0.34698951 0.085310169
0.39268517 1.7143409 1.4614296 0.94369155 -0.32830799 0.040744446 0.0063126306
0.4272702 1.7528744 1.4493251 0.9502635 -0.30807975 0.045675449 0.006635258
-2.6144292 1.82991 1.4587001 0.69476575 -0.69321829 0.19170031 0.10390943
-2.5756333 1.859899 1.4477606 0.59981132 -0.78383654 0.16070691 0.12553354
-2.4457138 1.8435669 1.4416444 -0.078018621 -0.9734019 0.21541099 0.059494045
-2.3500209 1.8222613 1.4463065 -0.15963234 -0.92042834 0.35683218 0.033535268
-2.2654617 1.8051006 1.4638796 -0.057630334 -0.91617733 0.39660791 0.058229867
-2.1200366 1.8287777 1.4777443 0.61224979 -0.65384603 0.44456217 0.078969441
-2.0711067 1.8496011 1.4310085 0.72092974 -0.57940435 0.38019848 0.064238265
0.45613599 1.8463879 1.4494295 0.95198804 -0.30415234 0.034787487 0.0061129928
-2.5830977 1.9066175 1.4735516 0.34954703 -0.8949157 0.27738559 0.10128889
-2.0407846 1.9460168 1.4360187 0.83317226 -0.39762709 0.38433939 0.02958554
-1.9958892 1.9905473 1.4126403 0.88689882 -0.31209177 0.3406013 0.019689623
0.48192495 1.944254 1.4539635 -0.98170364 0.1887819 -0.024888469 0.01690907
0.50999779 1.9720384 1.4515568 -0.98902273 0.14695342 -0.015452633 0.021288553
-2.020596 2.0394681 1.4493042 0.85579306 -0.26134375 0.44645014 0.023034962
-1.989364 2.0560219 1.4177032 0.89806795 -0.27955177 0.33959499 0.019177588
-0.33861712 2.0861518 1.4528843 -0.0082357014 -0.99918318 -0.039562088 0.053906992
-0.24961111 2.057333 1.4507978 0.26415449 -0.96441132 -0.011544926 0.068082444
-0.17805219 2.0494308 1.4537951 0.3780933 -0.92440802 -0.050152663 0.076652989
0.49722043 2.0135722 1.4534773 -0.99934345 0.023180548 -0.027844304 0.041531123
0.52455235 2.0500915 1.4530858 -0.99697214 -0.077728979 -0.0021993811 0.048333701
-2.0199912 2.1479006 1.4822572 0.83757406 -0.25738958 0.48189226 0.026559845
-1.97233 2.1420038 1.4317747 0.8745597 -0.28273135 0.3939648 0.024967765
-0.74747598 2.1977975 1.4995577 -0.31438631 -0.9481262 -0.04709613 0.0016312393
-0.63419187 2.1882243 1.4522511 -0.32499242 -0.9445259 -0.047440987 0.0014671738
-0.55359757 2.1638951 1.4496219 -0.3186051 -0.94692343 -0.042740356 0.0012284503
-0.45012209 2.1286638 1.4510891 -0.26401281 -0.96212459 -0.06792248 0.011080764
-0.37488797 2.1094151 1.4480013 -0.13279989 -0.99027556 -0.04145452 0.043587413
-0.14124881 2.1502702 1.4448444 0.6868245 -0.7235682 -0.068710834 0.085805014
-0.083788507 2.1633315 1.4517944 0.76712823 -0.63703084 -0.075537942 0.083900206
0.47202834 2.189831 1.4543205 -0.83802468 -0.52487379 -0.14907138 0.1272305
0.53101408 2.1543901 1.4481212 -0.99395293 -0.075472973 -0.079758734 0.082095578
-1.9407848 2.2542779 1.4389104 0.89323086 -0.18699753 0.40886497 0.022971269
-1.0001705 2.2980494 1.4624512 -0.32949835 -0.94322938 -0.041823193 0.0018196281
-0.93469685 2.288177 1.4508401 -0.32110593 -0.94635838 -0.036011819 0.0017391979
-0.85112399 2.2641711 1.4498012 -0.31305301 -0.94859695 -0.046493459 0.0016803251
-0.74743599 2.2297144 1.448727 -0.31460238 -0.94802403 -0.047705475 0.0016615969
-0.67403787 2.2097368 1.4466441 -0.3235316 -0.9450959 -0.04605459 0.0014201454
-0.59666163 2.2005367 1.4819778 -0.31767848 -0.94710702 -0.045482583 0.00129267
-0.13180386 2.2525415 1.4316605 0.80262119 -0.59622937 -0.01759775 0.081287205
-0.053438731 2.2515874 1.4817326 0.63460946 -0.76375186 -0.11812665 0.12476782
0.067389272 2.2794518 1.4522247 0.083969198 -0.9944399 -0.063548699 0.10988218
0.17669784 2.2923567 1.4601656 -0.17700751 -0.98416591 -0.0092634521 0.045360569
0.2538895 2.2795615 1.4480258 -0.27760184 -0.95998126 -0.037056759 0.0096822474
0.35056952 2.2481611 1.4495872 -0.4576149 -0.88875371 -0.026558613 0.045905743
0.44548941 2.2174737 1.4473903 -0.68544698 -0.71289647 -0.14812565 0.12474652
0.51728177 2.20328 1.4581416 -0.9710862 -0.20004672 -0.13028003 0.1572268
-1.9213076 2.3408988 1.4391201 0.88894874 -0.19533941 0.4142617 0.070379466
-1.8891795 2.3547697 1.416183 0.8939836 -0.23755501 0.37994853 0.075322956
-1.3220837 2.3812265 1.4980533 -0.32879195 -0.94374305 -0.035283204 0.0045270449
-1.2299418 2.3856494 1.4528134 -0.33344439 -0.94183064 -0.042069238 0.0038605747
-1.145793 2.3611605 1.4504402 -0.29706249 -0.95367038 -0.047609497 0.0027603905
-1.0482605 2.3308423 1.4490894 -0.29331911 -0.95523888 -0.038505401 0.0027495513
-0.97290528 2.3084865 1.4460456 -0.32748023 -0.94411319 -0.037511859 0.0018031624
-0.89923429 2.3030028 1.4304209 -0.32378396 -0.94501597 -0.045921091 0.0018947467
-0.10120854 2.3412735 1.4188538 0.62041456 -0.77954477 -0.085999094 0.1174916
-0.047338851 2.3656383 1.4494812 0.32717103 -0.94241762 -0.0693409 0.12474654
0.056637164 2.3485265 1.4486432 -0.014825446 -0.99707842 -0.074932992 0.082763888
0.14282158 2.3190768 1.4471908 -0.11731353 -0.99308717 -0.0039156042 0.060447618
0.21453327 2.3096614 1.4679408 -0.23608753 -0.9714722 -0.022459717 0.023437778
-1.9290667 2.4495633 1.4514753 0.88314551 -0.32286462 0.34031227 0.15034568
-1.890448 2.4294648 1.4338558 0.81117696 -0.39356658 0.43254757 0.17697553
-1.6042067 2.4956515 1.4483459 -0.45592186 -0.88830876 -0.055160888 0.054914027
-1.5306941 2.4870443 1.4491181 -0.3858282 -0.92121792 -0.049941815 0.015687712
-1.4498278 2.4634264 1.452805 -0.31574532 -0.94826448 -0.033155322 0.0080274912
-1.3475415 2.4300654 1.4502761 -0.32892501 -0.94361162 -0.037487876 0.0051701344
-1.2745064 2.4102893 1.4492921 -0.34340882 -0.93832219 -0.040271845 0.0044404953
-0.052702341 2.4055097 1.4581952 0.29927197 -0.95365018 -0.031425517 0.12636122
0.63517803 2.4708447 1.4260302 0.91348362 -0.40622905 0.022927877 0.010366835
-1.9540823 2.533648 1.4443483 0.86234587 -0.4016934 0.30822384 0.188572
-1.7082784 2.5542886 1.439285 -0.41231659 -0.90793496 0.07516107 0.19103217
-1.6458321 2.5287604 1.4477991 -0.44556674 -0.89520925 -0.0084139137 0.090923592
-1.5725311 2.510762 1.4514762 -0.47983363 -0.87661576 -0.036118332 0.026415562
-1.4629793 2.507297 1.444705 -0.32166559 -0.94572562 -0.046198316 0.0075276173
0.67516857 2.5690577 1.4403938 0.9325946 -0.35796174 -0.046158299 0.0099693174
0.7035737 2.5976801 1.4244461 0.93013144 -0.36397031 -0.048797458 0.0099687632
-2.0390973 2.607698 1.4412417 0.86779404 -0.20029214 0.45477089 0.14215764
-1.8229426 2.6730418 1.466886 0.96654874 -0.24011715 -0.090151377 0.27680814
-1.7365407 2.650744 1.4544177 -0.69559127 -0.71767592 0.033077039 0.19381869
0.6903044 2.63518 1.4472988 0.92808235 -0.37033713 -0.038904477 0.010353542
0.71227103 2.6637421 1.4539251 0.92730707 -0.37236273 -0.038045801 0.010407092
-2.1003203 2.7216041 1.4586478 -0.68226355 -0.24340333 -0.68939924 0.14320284
-1.8111745 2.7266669 1.4250187 0.97831053 0.10755807 -0.17703073 0.20252043
-1.7530087 2.7231505 1.4725133 0.91155988 0.38790035 -0.13635227 0.11087485
0.73744917 2.7387376 1.4517095 0.92510754 -0.37674719 -0.047304299 0.010126538
-2.2695203 2.8724008 1.4384532 0.86986059 0.44608453 0.21059737 0.16256243
-1.8524636 2.8730385 1.471929 -0.82755369 -0.561207 0.014200232 0.079896621
-1.7588936 2.8136418 1.4295281 0.94392771 0.32824603 -0.035428368 0.064795248
0.76683444 2.8406584 1.4206296 0.92650747 -0.37232757 -0.054369919 0.0090044886
-2.2200441 2.9457297 1.466166 0.096907213 -0.98819661 -0.11864489 0.11966845
-2.1842985 2.9572198 1.4401881 -0.00046413334 -0.9950906 -0.098966911 0.12811022
-2.0037293 2.9913805 1.4685278 -0.20528226 -0.97831374 0.027592836 0.063637115
-1.936916 2.9834392 1.4490627 -0.3846831 -0.92289168 -0.017025091 0.056665644
-1.864094 2.9622428 1.4527297 -0.72341645 -0.69024205 -0.01531763 0.067884743
-1.7951665 2.9418576 1.4528608 -0.79552847 -0.60533184 0.026605908 0.082384914
-2.2068677 3.0307131 1.4498926 0.059453391 -0.99409163 -0.09081389 0.080785282
-2.1664834 3.0619543 1.4523658 0.067412555 -0.99431658 -0.082402177 0.08421693
-2.0430725 3.0350308 1.4524636 -0.18988046 -0.98127544 -0.032310925 0.077376895
-1.9763567 3.0149589 1.4446911 -0.30012015 -0.95382559 0.012024486 0.057398025
1.6870273 3.7283943 1.4740341 -0.98243755 0.18116419 0.044674862 0.014855568
1.7141509 3.7856712 1.4786268 -0.98444784 0.1715441 0.037882503 0.015647547
1.7109584 3.8526471 1.4814302 -0.98923266 0.14295447 0.031348821 0.019693706
1.7364094 3.9411435 1.4099382 -0.9946261 0.1010967 0.022325227 0.028286187
1.7359259 4.0315175 1.4236829 -0.99642354 0.078681573 0.030812312 0.031067092
1.7635553 4.1401982 1.4419475 -0.99663347 -0.039886508 0.071630582 0.041284539
1.8021381 4.1263661 1.4761434 -0.99891794 -0.017020252 0.043280073 0.037961971
1.6278986 4.3933802 1.4653114 -0.92893249 -0.36704412 0.0486123 0.036290668
-0.72701424 -1.4067817 1.5888923 -0.20160678 0.97858572 0.041529093 0.12225332
-1.1159867 -1.3057408 1.5352517 0.3475123 0.93741906 -0.021925408 0.0064588301
-1.0200353 -1.3041046 1.5504421 0.3010796 0.95356303 0.0082867416 0.016412986
-0.94621605 -1.3244694 1.5541368 0.18608366 0.97748208 0.099506877 0.041056592
-0.85292161 -1.3535626 1.5501937 0.12786168 0.98261279 0.13462335 0.056514069
-0.77074969 -1.3778477 1.5561131 -0.032513484 0.99778062 0.058108404 0.10217102
-0.66260785 -1.3222024 1.5772746 0.80065429 -0.57637012 -0.16355498 0.10975559
-1.3035309 -1.2023487 1.5541365 0.36462656 0.93059093 -0.032371301 0.0094016185
-1.2372155 -1.2165499 1.5444378 0.3615959 0.93176579 -0.032572445 0.0093111088
-1.1515695 -1.2443969 1.5477605 0.35357982 0.93462104 -0.038273238 0.0095451633
-1.054052 -1.2764127 1.550977 0.30541968 0.95211536 -0.013971305 0.013010062
-0.97644907 -1.2907302 1.5445493 0.20489188 0.97500336 0.085952491 0.041297432
-0.70777982 -1.2748705 1.57429 0.71457714 -0.62778944 -0.30864194 0.11750071
-0.64867258 -1.2632436 1.5714229 0.8611325 -0.47259444 -0.18736397 0.064839646
-1.5288858 -1.1104926 1.5446452 0.37092659 0.92859429 -0.01123314 0.0025347355
-1.4448761 -1.1351225 1.5539253 0.36565915 0.93073934 -0.0042021684 0.0020017414
-1.3496658 -1.1684922 1.5521628 0.36644652 0.93028688 -0.01682974 0.005700571
-1.2742964 -1.188875 1.5564779 0.3734186 0.92708218 -0.032820523 0.0092879906
-0.61178488 -1.1427753 1.5989317 0.86621398 -0.38768145 -0.31524017 0.038451575
-0.59817928 -1.1319087 1.5899327 0.88302433 -0.3887423 -0.26295882 0.040116787
-1.8206644 -1.0046983 1.5513556 0.33933881 0.94054651 -0.014878934 0.001885545
-1.7494376 -1.0212275 1.5519561 0.3326633 0.94276989 -0.022801593 0.0028229472
-1.6453347 -1.0574826 1.5498384 0.34166074 0.93947679 -0.025522498 0.0030905057
-1.5607325 -1.0850327 1.5496007 0.35639465 0.93429744 -0.0084294127 0.0026447223
-1.4896246 -1.0970198 1.531593 0.36947635 0.9291802 -0.010557082 0.0025368833
-0.70922822 -1.0602053 1.5241488 0.87100071 -0.30266014 -0.38698155 0.074445359
-0.63282365 -1.0035472 1.518031 0.88849598 -0.30640146 -0.34160361 0.10099728
-0.55656773 -1.0342125 1.5800076 0.88482624 -0.39416626 -0.24842615 0.047286827
-2.1040087 -0.90702319 1.5506127 0.35710195 0.93402368 -0.0088288691 0.0027911719
-2.0399559 -0.91619444 1.5519898 0.35029051 0.93659765 -0.0090267491 0.002565267
-1.947997 -0.94689161 1.5500315 0.319446 0.94750416 -0.013787201 0.002045372
-1.8536501 -0.97921002 1.5520825 0.32863188 0.94436079 -0.013557178 0.0019895404
-1.7781359 -0.99290806 1.5556484 0.33506653 0.94197005 -0.020564338 0.0025831605
-0.52484757 -0.94770133 1.5590208 0.8676033 -0.42767638 -0.25368777 0.078670859
-0.48649189 -0.91549361 1.5630476 0.86830157 -0.45123237 -0.20601396 0.067503624
-2.4009905 -0.80697989 1.5116076 0.33508655 0.94195902 -0.020739347 0.0050990037
-2.3350945 -0.81444913 1.5509372 0.34651852 0.93792588 -0.014828724 0.0046691224
-2.2534277 -0.84032607 1.5477378 0.33212799 0.9431715 -0.010883737 0.0037791173
-2.1514645 -0.87440342 1.5491213 0.34545183 0.93837988 -0.010309096 0.0035008166
-2.0746081 -0.8910985 1.5482924 0.3605299 0.93271017 -0.0083621601 0.0027233327
-0.51118231 -0.8800593 1.5521866 0.84595168 -0.46653104 -0.25829166 0.072389998
-0.46643716 -0.84310913 1.5556744 0.85430694 -0.47753274 -0.20523693 0.061175339
-2.702904 -0.70247328 1.5604118 0.34006351 0.94039077 -0.0046903379 0.011379942
-2.6358478 -0.71503299 1.5445369 0.34641257 0.93774229 -0.025250835 0.0083477478
-2.5465097 -0.73913574 1.5507342 0.30331573 0.95239651 -0.030666215 0.006035225
-2.4505732 -0.77110076 1.5520813 0.31877786 0.94766825 -0.017484307 0.0061549661
-2.3725185 -0.79005474 1.5556878 0.35013202 0.93659657 -0.013941233 0.0053238627
-2.2874789 -0.78826785 1.5542402 0.33115962 0.94352043 -0.010120461 0.0036940838
-0.72144276 -0.77643758 1.5056895 0.75751328 -0.50939834 -0.40827316 0.092274018
-0.43753448 -0.75562894 1.5536338 0.80167341 -0.5772447 -0.15526831 0.054052632
-3.0213816 -0.60581237 1.556263 0.30155331 0.95344132 -0.0038884191 0.0097429557
-2.9319189 -0.61672306 1.5492656 0.30928779 0.95096624 0.0020782121 0.011574821
-2.8469753 -0.63636202 1.549197 0.29541919 0.95536244 0.0031800596 0.012715095
-2.7581069 -0.66853482 1.5515192 0.29839748 0.95444143 -0.00067444117 0.013399748
